-0.148666 -0.149144 -0.505098
-0.124306 -0.237538 -0.417927
0.220871 0.201591 0.368424
0.507365 0.221013 0.126356
-0.536872 -0.127954 -0.219149
0.261315 0.300706 -0.259371
0.474606 0.294667 -0.178666
-0.007609 0.373325 0.016427
-0.308426 -0.155165 -0.247882
0.135342 0.495370 -0.157097
0.355907 0.343140 -0.069360
0.030016 0.477882 0.040081
0.179496 0.071849 0.375054
0.001857 0.225254 0.262254
0.215213 0.398201 0.095581
0.240080 -0.103539 0.291498
0.397061 -0.013706 0.234647
-0.200415 -0.197485 -0.326052
0.057322 0.397389 0.199805
0.262422 -0.161058 0.212427
0.270492 0.056855 0.362074
0.098556 -0.194446 0.150449
0.408971 -0.051571 0.155150
-0.181008 -0.209725 -0.319706
0.064313 0.377208 0.221181
-0.551543 -0.160862 -0.277361
-0.160436 0.134235 -0.240645
0.094921 0.138806 -0.464379
0.282500 0.393744 0.166901
0.299990 0.373349 0.176591
0.015179 -0.113588 -0.187965
0.122563 -0.095731 -0.195318
-0.228607 -0.081166 -0.311553
0.038870 -0.104867 -0.219631
-0.469145 -0.063752 -0.199393
0.077185 -0.202900 -0.483649
-0.433592 -0.097592 -0.202719
-0.604645 -0.156586 -0.171068
0.469396 0.205126 0.215341
0.462376 0.211077 -0.063772
0.086861 0.031137 -0.444670
-0.108533 0.288870 0.093839
0.092558 -0.190927 0.156562
0.428326 0.023030 -0.082044
-0.120803 0.043665 -0.043552
-0.311335 -0.081252 -0.302160
0.081371 -0.145077 0.236044
0.257912 0.094796 -0.317483
0.368416 0.383099 -0.317506
-0.273523 -0.123620 -0.348930
0.315093 0.391165 -0.107588
0.240788 0.430040 -0.159172
-0.112068 -0.130847 -0.509136
0.005011 0.276706 -0.392715
-0.109081 0.262984 -0.308985
0.064519 -0.038815 -0.550662
-0.152201 0.131962 -0.158288
0.471542 0.268794 -0.167494
0.099864 0.467451 -0.018391
0.387555 0.062805 0.371898
0.236548 0.441663 -0.292420
-0.230553 -0.240406 -0.055540
-0.071378 -0.220199 -0.493800
0.125255 0.471621 0.157029
0.429410 0.095157 0.389167
-0.515313 -0.186137 -0.277578
-0.117651 -0.241102 -0.286571
0.445346 0.040821 0.155430
0.211690 0.062847 0.370632
-0.287746 -0.359117 -0.069918
-0.439489 -0.185090 -0.239762
0.393441 -0.016591 0.238823
0.500308 0.260380 0.024367
0.239030 0.361550 -0.246963
-0.119735 0.160272 0.104001
0.026341 0.438105 0.013478
-0.327139 -0.134751 -0.341794
0.082929 0.370950 -0.047525
-0.033523 0.327471 -0.204238
0.153596 -0.050652 -0.285902
0.253453 0.210249 -0.293654
0.286550 0.422486 -0.229943
0.011846 -0.228177 -0.355028
0.478102 0.188401 0.171956
-0.110112 -0.021654 -0.097927
-0.337552 -0.130553 -0.332843
0.286152 -0.096503 -0.038596
0.391162 0.349320 -0.320535
0.068128 0.405350 -0.127553
-0.017799 -0.113631 -0.530734
0.124967 0.447605 0.200403
0.035569 -0.081890 0.265104
-0.012702 0.381592 0.028675
0.509372 0.225926 0.117522
-0.240931 -0.241464 -0.066190
0.230176 0.215135 -0.336061
0.128648 0.272262 0.334582
-0.126027 0.087214 -0.057035
0.016745 -0.101270 0.232899
-0.373802 -0.192146 -0.265333
-0.183346 0.023018 -0.413797
-0.180167 0.038953 -0.358365
-0.258154 -0.260115 -0.157890
0.263171 -0.168351 0.198082
0.278344 0.331394 -0.297130
-0.316577 -0.354125 0.050465
0.038509 0.261894 -0.404565
0.343709 0.307169 -0.299497
-0.228368 -0.142466 -0.275026
0.234306 0.438674 -0.188498
-0.182433 -0.246818 -0.035889
0.346299 0.351630 0.257338
-0.125492 -0.084518 -0.491607
0.003713 -0.254396 -0.415009
0.164087 0.433879 0.000779
0.058068 -0.006538 -0.521152
-0.521696 -0.152333 -0.285620
0.185347 0.212656 -0.396360
0.117650 -0.207641 0.048429
0.327125 0.359528 0.169375
0.181824 0.269965 -0.334235
0.348883 0.251680 0.417971
0.008205 -0.252223 -0.414974
0.078988 -0.139447 -0.091110
-0.234183 -0.182131 -0.310827
0.055858 0.373553 -0.024679
-0.071392 0.311954 -0.235811
0.373034 0.339512 -0.133831
-0.096967 0.280280 -0.294027
0.203310 -0.203367 0.123460
-0.041133 0.287049 -0.124094
-0.143200 -0.234485 -0.322245
0.371311 0.379655 -0.292560
0.040788 0.290410 -0.379739
0.315980 -0.077148 0.275877
0.359593 -0.095842 0.041230
0.397280 -0.062870 -0.027555
0.280748 0.409856 -0.152850
-0.018275 -0.251177 -0.442965
0.220902 -0.200701 0.144361
-0.313406 -0.352410 0.049320
0.079042 0.465250 -0.172450
-0.293120 -0.137530 -0.249491
0.327657 0.371189 -0.111980
0.264655 -0.138697 -0.017170
-0.128901 0.174150 0.078097
-0.148358 -0.075779 -0.476301
-0.375934 -0.063224 -0.267104
0.043619 -0.182558 -0.382758
0.176738 0.253062 0.351841
-0.575341 -0.144155 -0.198451
0.333675 0.383539 -0.356844
0.164406 0.036223 -0.407412
0.031639 -0.175053 0.073731
-0.519964 -0.188593 -0.248066
0.149969 0.356866 0.294758
-0.125980 -0.046180 -0.167119
-0.099430 0.132293 0.027355
0.240030 0.237542 -0.279968
-0.549971 -0.174097 -0.186607
0.078855 0.456525 -0.157713
-0.092656 0.064710 -0.453142
0.042105 -0.018167 -0.538411
-0.095192 -0.253140 -0.398949
0.418939 0.006409 0.218790
0.407089 0.347730 -0.207570
-0.201885 -0.188863 -0.405980
-0.005849 0.311975 0.211640
0.015079 0.111725 0.295241
0.130200 0.409583 -0.261874
-0.120823 0.250759 0.011305
-0.130081 0.144639 -0.366855
-0.013979 -0.105409 -0.139884
0.273072 -0.129491 -0.016536
0.453124 0.177795 0.250732
0.202478 0.262327 -0.312132
-0.200805 -0.282579 -0.051470
-0.116342 0.261118 -0.236980
-0.049034 0.256520 -0.071794
0.082776 0.394286 -0.056075
0.003868 0.409663 0.099506
0.388406 0.180986 0.437590
-0.195755 0.005295 -0.401417
-0.050990 0.324998 0.002974
0.017520 0.321976 0.222209
0.116082 -0.091089 0.304500
0.052568 -0.101420 -0.552954
-0.101480 0.046572 0.041269
-0.080982 0.224068 -0.062212
-0.070653 -0.050284 0.041866
0.005247 0.264775 0.252656
0.193275 0.406405 0.118164
0.007408 0.105084 0.285580
0.030515 0.429940 0.005008
0.028958 0.436277 0.048573
0.406053 0.090933 0.318212
-0.504259 -0.188657 -0.252895
0.150360 0.085470 0.374712
-0.159758 -0.063059 -0.227610
0.363820 0.310020 -0.287908
0.178213 0.285424 -0.310448
0.160995 -0.038006 -0.294283
0.082597 0.487982 -0.153571
0.067919 0.167481 0.330538
-0.244312 -0.262945 -0.015981
0.410705 0.348986 -0.155219
0.385114 0.175696 0.439724
0.289971 -0.104350 -0.025167
0.275295 -0.165375 0.185425
0.173728 -0.199641 0.175258
0.290123 0.384862 0.115068
0.132556 0.211045 0.351030
-0.135305 0.228844 0.028990
-0.522918 -0.132154 -0.234109
0.101696 0.280695 0.321978
-0.152584 0.150229 -0.160698
-0.567840 -0.194902 -0.236889
-0.157803 0.022333 -0.232861
0.122509 -0.025721 -0.454434
-0.164564 -0.220750 -0.390003
-0.097225 -0.000463 -0.505032
0.353486 0.343226 -0.053880
0.417757 -0.048668 -0.011009
-0.042960 0.266920 -0.376480
0.240634 -0.140715 0.256720
0.472313 0.150579 0.198153
0.158962 -0.166167 0.232278
0.436340 0.305954 -0.197708
0.179566 0.321930 0.329631
0.277068 0.177931 0.439102
-0.151932 -0.227539 -0.387858
0.058107 -0.168604 -0.365547
0.264112 0.139263 -0.306901
0.125492 -0.061483 0.324777
0.090562 -0.105080 -0.213117
-0.172690 -0.116699 -0.463234
0.113034 -0.100133 -0.510682
0.395546 0.327755 0.182776
0.251165 0.401482 0.234372
0.107584 0.172186 -0.458543
0.090558 -0.114939 -0.536702
0.095310 0.408605 0.201396
-0.329612 -0.088515 -0.307977
0.512882 0.237325 0.115103
-0.155605 0.108231 -0.291650
0.281885 0.427469 -0.306697
-0.087708 0.066797 0.096398
0.341551 0.349396 -0.045036
0.105494 0.021037 0.349096
0.041241 0.429191 0.118246
0.109806 0.489992 -0.299511
0.028061 0.126195 -0.478554
0.154710 0.307479 -0.301110
0.201344 0.273542 -0.287301
0.229618 0.222805 -0.328846
0.191735 0.253295 -0.345183
0.082412 0.421997 -0.191867
0.151975 -0.132318 -0.457574
0.377114 -0.089702 0.097187
0.254454 0.429461 -0.308846
-0.449622 -0.072261 -0.249424
-0.153745 -0.089236 -0.471418
0.221581 0.411694 -0.053311
0.136279 0.467347 0.103075
0.434865 -0.028861 0.012904
0.212358 -0.102524 0.298853
0.006384 -0.150200 0.028945
0.134322 -0.196308 -0.004584
0.264014 0.150853 -0.304572
-0.094786 0.237321 -0.356771
-0.322446 -0.113602 -0.327871
-0.012196 -0.108509 -0.157773
0.393525 0.359364 -0.170131
0.255147 -0.164052 0.026223
0.361992 0.333359 0.010027
0.001040 0.066204 -0.463642
0.502440 0.195982 0.032305
0.104814 0.491353 0.098336
0.391336 0.292627 0.337755
-0.025803 0.314674 -0.320062
0.305173 -0.093287 -0.006400
0.094008 0.026677 -0.440964
0.059059 -0.152742 0.211746
-0.201292 -0.256801 -0.006155
0.002188 -0.014442 -0.525550
0.008065 0.284396 -0.384866
-0.014287 0.287143 -0.369198
-0.123065 -0.243984 -0.315532
-0.231967 -0.217865 -0.122024
0.037711 0.285095 0.271508
-0.504279 -0.143128 -0.181293
-0.058587 -0.193661 -0.274558
0.059581 -0.190370 -0.403996
0.052339 0.238618 0.307080
-0.077521 0.233536 0.183201
-0.019627 0.303253 -0.347782
0.478805 0.111589 0.149826
-0.132450 0.168372 -0.347207
0.449583 0.324789 -0.115600
0.253857 -0.183138 0.117388
0.254344 -0.071187 0.312357
0.283474 0.373149 0.023929
0.344359 0.357496 -0.122553
-0.534494 -0.183131 -0.218014
-0.084217 0.285814 -0.175662
-0.000528 0.281932 0.232290
0.005540 0.150599 -0.470877
0.461437 0.154856 0.230498
0.169645 -0.071061 0.328588
0.030778 -0.158948 -0.004272
-0.163005 0.102693 -0.244436
-0.413173 -0.106527 -0.276440
-0.059926 0.258474 -0.043386
0.147602 -0.078373 -0.410390
-0.218878 -0.237174 -0.240227
0.291542 -0.112145 0.259665
-0.228674 -0.307265 -0.093385
0.220866 -0.003042 -0.247126
-0.212567 -0.287917 -0.032150
-0.255975 -0.321731 -0.148931
-0.050968 0.119614 0.222537
0.119425 -0.122671 -0.132430
-0.279636 -0.284502 -0.022049
0.378322 -0.050421 -0.092768
0.238607 0.447500 -0.283793
0.394104 0.070139 -0.139496
-0.160861 -0.087479 -0.233200
0.273070 -0.116602 -0.043987
-0.079571 0.130301 0.184648
-0.180921 -0.210388 -0.383710
0.218098 0.415483 0.253733
0.004982 -0.156424 0.065268
-0.133422 0.215376 -0.170194
0.105941 -0.197548 0.014705
-0.606215 -0.184594 -0.219527
0.079187 0.436595 -0.113184
0.007881 0.320609 -0.309231
0.394123 0.363195 -0.252345
0.453790 0.150726 -0.083199
0.504760 0.185864 0.048363
-0.215870 -0.142273 -0.276172
-0.142593 0.034263 -0.122021
0.094817 0.508465 -0.275386
0.407630 0.074902 0.392333
0.460000 0.233671 -0.123563
0.099734 0.425803 -0.231586
0.426825 0.283809 0.293609
-0.076692 -0.064723 -0.108542
-0.081108 0.009834 0.108929
0.108316 0.008550 0.349512
0.105947 -0.121206 -0.343126
0.176892 -0.170586 -0.053301
0.051573 0.164167 0.322406
0.121351 0.234547 0.335764
-0.040389 0.287771 -0.111355
-0.480290 -0.090847 -0.187876
-0.132356 -0.239390 -0.303885
0.002607 -0.253807 -0.358183
-0.012739 0.396684 0.090254
0.353281 -0.101422 0.042574
-0.160070 0.034655 -0.229183
0.189596 0.349974 -0.216504
0.093284 0.420535 -0.214132
-0.023381 0.070638 0.236460
0.083934 -0.092281 -0.274464
0.097989 0.403067 -0.216959
0.119146 -0.156260 -0.504147
-0.402414 -0.056566 -0.248687
0.407805 0.341359 -0.208361
-0.367073 -0.194042 -0.272297
0.264366 0.399564 0.188127
0.213927 0.023159 0.366618
-0.107986 -0.163115 -0.520847
0.298950 0.350588 0.293290
-0.070377 -0.254213 -0.422798
0.364507 0.249228 -0.148091
0.311820 0.319792 0.351001
-0.129343 0.265433 0.050134
0.326519 0.070544 0.387946
0.099612 -0.125259 -0.330939
-0.233526 -0.215859 -0.152613
0.119110 0.286063 0.328299
-0.010996 0.154514 0.274646
0.207278 0.409406 0.036833
-0.002018 0.295364 0.220921
-0.020872 -0.112747 0.162761
-0.574886 -0.185766 -0.188083
0.279349 0.378282 0.108649
0.128355 -0.020197 -0.377372
0.468971 0.218228 0.282156
0.221624 -0.186303 0.192256
0.465757 0.090408 -0.046906
0.303288 0.373419 0.156347
0.228792 -0.176776 0.009586
0.093169 0.047870 -0.448814
0.190316 0.103418 -0.417064
-0.190645 -0.231904 -0.277376
-0.111903 0.043864 -0.024570
0.129925 0.231192 0.344807
-0.091068 0.277401 -0.165211
0.084275 0.505686 0.049114
0.150345 0.489910 -0.183445
-0.040607 0.191205 -0.439446
-0.196823 -0.164619 -0.459332
-0.147341 -0.059417 -0.481094
0.243726 0.430741 -0.174879
0.130956 -0.111354 -0.392293
0.255103 0.426998 -0.178829
-0.060085 0.353241 0.092849
0.031572 0.524874 0.015508
-0.048871 -0.073451 0.135395
-0.149091 0.130370 -0.143194
0.171500 0.087209 0.374252
0.120410 0.445037 -0.294468
0.148229 0.260237 -0.376353
-0.004590 -0.101779 -0.109619
0.045192 0.235900 0.302326
0.027461 0.431415 0.053372
-0.146888 0.181239 -0.284335
-0.553562 -0.089141 -0.160184
-0.057503 0.273110 -0.120189
0.469484 0.110611 -0.053871
0.208752 -0.033848 0.347447
0.005328 -0.114825 -0.080998
0.075571 0.503089 0.073707
-0.052260 0.297942 -0.160232
-0.025315 0.332493 0.171118
0.012175 -0.231449 -0.480839
0.227630 0.332688 0.303024
0.418160 -0.004592 0.212434
-0.146709 0.114698 -0.336815
0.137085 0.046124 0.372243
-0.123337 0.107564 -0.387145
-0.061329 0.183174 -0.424998
-0.016727 0.347123 0.171021
0.367544 0.166648 -0.127421
-0.210103 -0.031293 -0.323024
0.230605 0.025076 -0.297564
0.030986 0.323911 -0.051176
0.109600 0.510875 -0.180606
0.024987 -0.083160 0.257190
0.303921 0.339437 -0.338294
0.197951 0.008520 -0.327535
0.031552 0.185454 0.302218
0.068262 -0.167335 0.193076
0.120570 0.497893 -0.106413
0.344549 0.353387 -0.106086
0.393552 0.346032 -0.312672
0.258592 -0.167367 0.205098
0.038812 0.452183 -0.071217
0.191936 0.404196 0.145310
-0.030765 0.311017 -0.158953
0.006637 -0.064092 0.252247
0.116840 0.482988 -0.075435
-0.049964 0.352764 0.123016
0.462026 0.028439 0.096904
-0.185646 -0.305197 -0.173700
0.470766 0.185734 0.322801
0.455058 0.293874 0.037186
-0.085348 0.235857 -0.375776
-0.191403 -0.278720 -0.075802
0.376655 0.347135 0.124736
0.028059 0.081380 -0.473129
-0.239567 -0.222264 -0.130792
0.344190 0.229975 -0.133799
-0.120096 0.182142 -0.102128
0.357267 0.285550 0.378899
0.106469 0.100803 0.367343
0.185709 0.279003 -0.309463
-0.134525 0.080865 -0.371828
-0.570750 -0.189601 -0.203174
-0.150251 -0.009813 -0.469515
0.458076 0.215331 0.233533
-0.147573 0.176841 -0.189796
-0.107850 0.018045 -0.492176
-0.453375 -0.146709 -0.314681
0.516258 0.257649 0.092807
0.080470 0.485265 0.097282
-0.173012 -0.029088 -0.453640
0.478054 0.069677 0.079195
-0.013001 -0.007832 -0.515868
0.141968 -0.154384 0.246077
-0.009532 0.279294 0.228439
-0.215692 -0.048814 -0.365061
0.384869 0.003036 -0.147345
-0.056260 0.138548 -0.448174
0.403938 -0.040995 -0.054018
-0.097748 0.132407 0.127966
0.081064 -0.054871 0.315996
0.452318 0.308008 -0.056599
-0.392026 -0.179859 -0.240576
0.237727 -0.128630 -0.071229
-0.151941 0.002755 -0.194775
-0.038673 -0.103636 0.006624
0.365468 0.338700 -0.083534
0.371652 0.342434 0.172296
0.323975 0.357965 0.220071
-0.443337 -0.195105 -0.279995
0.291262 0.410321 -0.103043
0.225826 0.406441 -0.028153
0.180090 0.478108 -0.229377
0.234850 0.188924 0.369650
-0.003563 0.142537 0.279628
0.042983 -0.174673 -0.335691
-0.406909 -0.165390 -0.222005
0.318931 0.057921 -0.173436
0.362860 -0.085226 -0.037363
0.329309 -0.092812 0.000777
-0.142792 0.095005 -0.108131
0.271591 0.389023 -0.064515
0.097055 -0.133084 -0.108598
0.332207 0.390218 -0.138720
0.038173 -0.149221 -0.273504
0.063533 -0.198778 -0.505433
0.085656 0.504192 0.066939
-0.154796 -0.267489 -0.075977
0.174703 0.030586 -0.387670
-0.389802 -0.068787 -0.233256
0.034891 0.322363 -0.328767
0.204921 0.128764 0.376158
0.134580 -0.201060 0.156253
0.327187 -0.021997 0.309221
-0.081984 -0.107247 -0.208327
0.446735 0.118774 0.252704
-0.179526 -0.217158 -0.094994
0.297483 0.398135 -0.092555
-0.401341 -0.192639 -0.260607
0.268107 0.078328 0.367750
-0.097202 0.150566 0.167692
-0.085426 0.219628 0.184632
0.115780 0.390361 0.251970
0.080107 0.430594 -0.180462
-0.132281 0.117825 -0.092082
-0.087983 0.032262 0.112071
-0.094769 -0.128217 -0.221100
0.068885 -0.212223 -0.468087
0.182228 0.435035 -0.069942
0.255278 0.190254 -0.304986
-0.115034 0.247836 -0.317264
0.018038 0.192412 0.288504
0.068145 0.123567 -0.473607
0.031266 -0.038488 0.286784
0.133867 0.442271 0.075954
0.490167 0.256251 -0.039174
0.257221 0.344452 -0.269974
0.134800 0.470454 0.103146
0.197117 0.411650 0.053692
0.132432 -0.007865 -0.389488
-0.119092 0.273973 0.023147
-0.359092 -0.195914 -0.313736
0.501955 0.287928 0.014852
0.298376 0.365668 0.265332
-0.216830 -0.194317 -0.341434
0.083262 0.291070 0.304719
-0.509705 -0.175438 -0.292396
0.018442 0.401554 0.145555
0.102015 -0.137628 -0.529129
0.061340 -0.157900 -0.321136
-0.124681 0.174923 -0.111280
0.255034 -0.050466 -0.155724
0.223415 0.177921 -0.372199
0.048505 0.236845 0.304810
-0.028930 -0.091045 -0.111012
0.295424 -0.136716 0.069376
0.363143 0.067682 0.323675
0.345858 0.074601 0.424100
-0.123723 0.231497 -0.167647
-0.234515 -0.099717 -0.366788
-0.101580 0.103402 -0.412778
0.198878 0.429703 -0.292732
-0.033360 -0.088847 -0.111177
0.202785 0.028056 -0.356915
-0.089758 0.102995 0.068405
0.433344 0.012734 -0.064178
0.295152 0.338014 0.314686
-0.070702 -0.017439 0.112303
0.166855 0.295140 -0.310842
0.395443 0.336919 0.125318
0.393914 0.337285 -0.301558
-0.282123 -0.140507 -0.355912
0.218967 0.414450 -0.276899
0.230479 -0.189370 0.068289
-0.204015 -0.307501 -0.188809
-0.127383 0.235275 -0.233334
-0.184845 0.024501 -0.319776
0.032595 -0.117665 -0.159954
-0.395419 -0.134281 -0.310484
-0.122290 -0.242051 -0.296365
0.083710 0.506822 0.033455
0.106643 -0.133946 -0.526384
0.417044 -0.005426 -0.067020
0.202032 0.412941 -0.277118
-0.067699 0.090022 -0.440001
0.123003 -0.025933 -0.458144
0.224177 0.114239 0.376622
-0.100881 -0.224381 -0.476365
-0.052027 0.319948 -0.232798
0.034745 0.098277 0.317858
0.026139 0.490680 0.025722
-0.421443 -0.057490 -0.229863
0.076551 0.426906 0.155087
0.083124 0.488670 0.096689
-0.452144 -0.181211 -0.231788
-0.085793 0.159468 0.189496
0.073178 -0.103129 0.279877
0.356073 -0.013091 -0.153523
0.510487 0.279681 0.065977
-0.470133 -0.139126 -0.280630
0.356590 0.252552 0.414006
-0.052077 -0.094548 0.036849
-0.003966 -0.071694 0.233340
0.078196 0.509821 0.034076
-0.123421 0.166514 0.093301
0.061342 0.395210 -0.153998
0.406289 -0.048480 0.162464
-0.186252 -0.025628 -0.268572
0.168638 0.448756 0.195331
0.210735 0.421733 -0.284014
0.486419 0.303992 -0.078803
-0.147912 -0.263136 -0.131964
0.257292 0.140291 -0.326974
0.116813 0.425515 -0.274302
-0.049212 0.278459 0.182183
0.254359 0.212161 0.401767
-0.275599 -0.309335 0.070433
0.276711 0.412876 -0.155554
-0.178051 -0.027436 -0.446607
-0.166941 -0.269471 -0.119065
0.189585 0.119237 0.374238
0.316752 0.360721 0.218257
0.002073 -0.176730 -0.290368
-0.004014 0.098615 -0.472678
-0.005281 -0.262602 -0.364257
0.125773 0.466425 -0.078201
0.310742 -0.048485 -0.127045
-0.060391 -0.063615 -0.069659
0.456678 0.007964 0.102825
0.286115 -0.080773 -0.054196
-0.053697 0.067863 0.162559
0.165689 0.291933 0.335913
-0.008540 -0.146545 -0.537916
0.450751 0.231201 -0.120942
-0.190218 -0.142250 -0.471743
-0.116966 0.089765 0.004079
0.047947 -0.162724 -0.310423
-0.033014 0.082717 -0.459224
0.096865 -0.035708 -0.530373
0.219514 0.132526 -0.390524
-0.375751 -0.084886 -0.297344
0.403296 0.273573 0.352229
-0.001815 -0.152998 0.103270
0.285464 0.177478 0.444050
0.281109 0.082588 0.365816
0.004174 0.304038 -0.059196
0.212709 0.410312 0.001117
0.415113 0.267239 0.345332
-0.112561 -0.196678 -0.224722
-0.115700 0.059115 -0.030215
0.489516 0.088307 0.021413
0.406018 -0.038377 0.194703
0.131235 -0.191668 -0.016886
0.071056 -0.164112 -0.045592
0.287726 0.303671 -0.265736
0.491292 0.280103 -0.150896
-0.601034 -0.172298 -0.155956
-0.009261 -0.231842 -0.324157
0.246192 0.035629 0.362852
0.219881 0.408276 -0.016190
0.480980 0.239876 -0.020318
-0.157276 0.082571 -0.300772
0.430969 0.290393 0.044754
0.221198 0.393158 0.113335
0.252169 -0.041631 0.331671
-0.081834 0.006618 0.091293
0.140543 -0.101965 0.301152
0.369761 -0.041906 -0.118120
-0.033284 -0.109310 0.131151
0.192299 -0.079426 -0.167361
-0.362719 -0.149267 -0.224469
0.232793 0.405917 -0.053669
-0.152882 0.007877 -0.204723
0.457914 0.130203 0.356641
-0.156323 -0.252412 -0.182804
-0.166321 0.094967 -0.202272
-0.127730 0.213297 -0.329760
0.200400 -0.203910 0.057117
-0.544400 -0.153678 -0.168151
-0.062148 0.095114 0.148039
-0.170864 0.044073 -0.404037
-0.086267 -0.009849 0.058467
-0.157363 0.048856 -0.164471
0.409990 -0.056114 0.081785
-0.343627 -0.369886 0.036716
-0.410860 -0.105158 -0.207231
0.408673 -0.059200 0.111896
-0.144689 0.103084 -0.116281
0.212798 0.410836 0.266653
0.457650 0.197530 -0.077938
-0.072864 0.319093 0.125441
0.100349 0.331781 -0.286008
0.501550 0.288519 -0.033546
0.432425 0.182815 -0.106662
0.270478 -0.065722 -0.104217
0.145576 0.435419 0.070641
-0.160223 0.028384 -0.253371
0.304048 0.261145 0.415121
0.044361 0.446244 -0.074427
0.126899 0.078658 -0.446685
-0.098222 0.160699 -0.404305
0.068097 0.026171 0.332752
-0.299958 -0.194645 -0.325596
0.189633 0.428349 0.193162
-0.317131 -0.389403 -0.011003
-0.059140 0.317324 -0.224945
-0.060727 0.280402 -0.138938
-0.190317 -0.203758 -0.322982
0.302583 0.374406 -0.072744
-0.161685 0.126987 -0.234797
0.311367 0.343398 -0.343281
0.200519 0.058751 -0.390350
-0.159877 -0.266192 -0.192651
0.406491 0.082156 0.331250
0.139802 0.017530 0.362236
-0.033472 -0.120908 0.070807
0.078846 0.409122 0.193038
0.225672 0.145497 0.374510
0.139599 0.464454 0.178384
0.163978 0.440725 0.238440
0.364713 0.299603 -0.229306
0.427587 0.115899 0.277265
-0.012549 -0.210730 -0.507437
-0.071506 -0.046208 -0.524468
-0.121579 0.091353 -0.017599
-0.224736 -0.181917 -0.310261
0.215078 -0.193138 0.045775
-0.224550 -0.290757 -0.205737
-0.214727 -0.334738 -0.141597
0.013715 0.407283 0.122847
-0.230280 -0.300698 -0.073504
0.076872 -0.093291 0.289924
0.208033 0.463018 -0.294697
0.441724 0.062312 0.217457
-0.365820 -0.146919 -0.223064
-0.205047 -0.181827 -0.415787
0.202590 0.457237 -0.170481
0.384812 -0.090831 0.135274
0.334865 0.071498 0.412667
0.172622 -0.162348 -0.069310
0.317693 -0.058608 -0.112502
0.388556 0.322543 0.288419
0.230186 0.382371 -0.245063
-0.108051 0.230393 -0.136047
-0.037763 0.364871 0.125281
-0.067978 -0.057364 -0.077732
0.086537 0.289111 0.308354
0.179720 0.308667 -0.249120
-0.463663 -0.189351 -0.251127
0.226090 0.405779 -0.024202
-0.122147 0.182544 -0.360648
0.088194 -0.104420 -0.540102
0.223935 0.429987 -0.078736
-0.000586 0.299643 0.221195
-0.067804 -0.028069 0.118505
0.101958 -0.183041 -0.460462
-0.115240 -0.211702 -0.226646
-0.434689 -0.148343 -0.204200
-0.107956 0.036854 -0.002226
-0.075738 0.084164 -0.435763
-0.250615 -0.327703 -0.061533
0.442209 0.133720 -0.097619
-0.064464 0.040253 0.147980
0.108081 -0.105294 -0.518764
-0.010410 0.011630 0.240068
-0.030348 0.128111 0.254642
-0.206753 -0.254442 -0.010534
0.436378 -0.025690 0.079438
0.376412 0.368791 -0.174347
0.002900 -0.153133 -0.538805
0.120052 0.283568 0.329484
0.087363 0.520462 -0.215558
-0.118079 0.122339 -0.032165
-0.386767 -0.123087 -0.212267
-0.029583 -0.266498 -0.388659
0.129878 0.041192 0.369040
-0.086176 -0.026785 -0.003647
0.071513 0.387661 -0.193807
0.377776 0.191268 0.439747
0.307914 0.328395 -0.331126
0.280854 -0.125496 0.000703
0.160464 0.368631 0.295160
0.213461 -0.066886 -0.169060
0.142820 -0.047948 -0.455506
-0.089816 -0.179695 -0.518439
0.177100 0.294757 -0.291528
0.142483 -0.069611 -0.408217
0.074608 0.411183 -0.084776
-0.604092 -0.191875 -0.219084
0.508085 0.235106 0.094809
0.152327 -0.099665 -0.480114
0.073412 0.331871 0.279524
0.267140 0.334849 -0.280006
0.478114 0.194705 -0.039969
0.124259 0.243841 -0.407571
-0.007646 0.263042 0.243599
-0.185061 -0.139926 -0.256825
0.302144 0.417916 -0.325444
0.423421 0.209710 -0.108899
-0.062138 0.314214 -0.257361
-0.408029 -0.157493 -0.215956
0.136568 0.366859 0.284727
0.455419 0.246300 0.252523
0.381098 0.323431 -0.000362
0.424009 0.298310 -0.006703
0.039195 -0.117814 -0.117576
0.057380 -0.189046 -0.516985
0.119016 0.454846 0.053087
0.239795 0.048773 0.367174
0.160199 -0.181841 -0.035253
0.120055 0.199654 0.347243
-0.167724 0.043253 -0.416802
-0.092697 0.164267 -0.409596
0.442305 0.140485 0.393767
0.070048 -0.192821 0.051481
-0.017653 0.120766 -0.470011
0.230564 0.017019 -0.252050
-0.066301 0.056691 -0.467445
0.149370 0.044301 0.372843
-0.135960 0.112776 -0.096063
0.490546 0.131551 0.010917
-0.285563 -0.290518 0.049691
0.178790 0.252086 -0.360578
0.330088 0.356052 0.196385
0.379168 0.371412 -0.241007
0.300100 0.400392 -0.137014
0.404324 0.311922 -0.036462
-0.042227 -0.257621 -0.423316
-0.426951 -0.054458 -0.257017
-0.026812 0.137436 -0.463926
-0.305721 -0.155958 -0.249125
-0.053773 0.148307 -0.447609
0.079570 0.019072 -0.445353
-0.018562 0.295829 -0.356306
-0.542188 -0.181316 -0.279805
0.427428 0.071998 -0.094852
0.335694 0.269606 0.405693
-0.319523 -0.078929 -0.262096
0.485943 0.302705 -0.164702
0.077632 0.040498 -0.450413
0.073814 0.405917 -0.055983
-0.156258 0.060037 -0.386293
-0.040969 -0.102097 0.100859
0.420717 0.036964 0.240718
0.035472 -0.045731 0.288386
0.341813 -0.074217 0.256003
-0.137805 0.238608 0.056810
0.437410 0.136712 0.276559
0.186545 0.102879 0.374199
0.020804 0.449252 -0.009198
0.164451 -0.067616 0.330988
0.039873 0.331951 -0.303746
-0.143641 0.189023 -0.304858
-0.153058 0.121795 -0.163405
0.438477 0.105307 0.260827
-0.118112 0.196792 -0.124648
-0.274535 -0.331815 0.005931
0.152324 -0.094496 -0.171725
0.097461 0.083690 0.363230
-0.178620 -0.150556 -0.240096
0.262236 -0.044290 -0.154020
0.329104 0.294321 -0.257064
0.490900 0.266428 -0.094711
0.078108 0.509057 0.052047
0.327833 -0.029994 -0.149464
0.335667 0.072292 0.415982
0.103865 -0.142417 0.251380
-0.212761 -0.030908 -0.351483
0.375666 0.344873 0.130686
-0.103034 0.102418 0.037427
-0.470341 -0.064691 -0.235764
0.080107 -0.187927 0.010810
0.197375 0.177455 -0.404152
0.088604 -0.101738 -0.288056
0.292471 -0.010704 -0.160973
0.343081 0.248495 0.422374
0.039593 0.360495 -0.024985
-0.143724 -0.102653 -0.222722
-0.107626 -0.042325 -0.110799
-0.141872 0.198811 -0.272868
0.037638 -0.179331 -0.346680
0.286596 0.368428 0.054807
-0.059425 -0.110324 -0.206661
-0.276282 -0.276084 -0.049868
0.267914 0.132960 0.387816
-0.285582 -0.288812 -0.032494
0.426590 0.340714 -0.161861
0.448351 0.090313 -0.071489
0.323207 0.084494 0.429284
0.037720 -0.087605 0.263475
-0.153410 0.145221 -0.171587
0.255600 0.396012 0.244728
0.073335 0.262247 0.311911
-0.250227 -0.308106 0.021363
-0.188735 -0.302049 -0.189582
-0.026508 -0.091980 -0.531029
-0.562445 -0.173061 -0.176509
0.347617 0.279974 0.390651
0.006605 0.306007 -0.059413
0.013970 0.329214 -0.097569
-0.077854 -0.198537 -0.264806
-0.143862 0.057898 -0.128128
0.331231 0.355256 -0.043089
0.284323 -0.132198 0.236916
-0.225461 -0.075126 -0.320322
0.130870 -0.094952 -0.499247
0.034976 -0.116344 -0.134068
0.196754 0.426959 0.253852
0.452252 0.001126 0.047670
-0.112713 0.219444 -0.134938
-0.598481 -0.166372 -0.200865
0.186813 0.191251 0.371708
0.460714 0.183231 0.352719
0.060165 0.025559 -0.451619
0.165452 0.213989 0.360229
0.471769 0.165571 0.195101
-0.357679 -0.145129 -0.224911
0.195323 0.323988 -0.219564
0.285022 0.335860 0.312437
0.088631 0.509771 -0.154771
-0.491525 -0.162819 -0.200739
0.185912 0.423253 0.185401
0.045364 0.217729 0.305238
0.036177 -0.234551 -0.420927
0.392433 0.003345 -0.138381
0.129152 0.469301 0.084955
0.144594 0.307272 -0.319171
0.169488 0.314761 -0.247525
-0.137707 0.016715 -0.468152
0.085661 0.321814 -0.329955
0.101227 0.132027 0.358014
0.195260 0.269422 -0.309601
-0.135648 0.165649 -0.126381
-0.086113 -0.220456 -0.267875
-0.260152 -0.246118 -0.109746
0.070572 -0.107203 -0.271066
0.324136 0.406272 -0.320502
-0.569121 -0.128514 -0.145995
-0.162930 0.045594 -0.218366
0.462488 0.195131 0.342679
-0.214783 -0.110247 -0.411123
0.276000 0.377863 0.109332
0.320461 -0.134490 0.137249
-0.217071 -0.239098 -0.243798
0.008340 -0.036275 -0.541048
0.206255 -0.199342 0.049621
-0.066678 -0.053431 0.025349
0.317056 -0.017858 0.317637
0.058134 0.371646 -0.192628
0.451081 0.110146 0.244527
0.390302 -0.075598 -0.013444
0.510926 0.266463 0.053985
-0.081860 -0.076939 -0.152021
0.168481 -0.196979 0.008568
0.116223 0.421557 -0.264904
0.427594 0.121801 0.281930
-0.007013 0.012803 -0.491965
-0.041332 0.189291 0.235914
-0.111391 0.220370 0.142418
0.271237 0.377886 0.111600
-0.083013 0.290627 0.135207
0.404162 -0.036587 0.204078
0.279924 0.024724 0.348512
-0.076819 -0.086288 -0.186859
0.345407 0.344100 -0.008836
-0.149889 -0.175667 -0.181908
0.007155 -0.251644 -0.424333
-0.081592 -0.081066 -0.178583
-0.066529 0.154858 -0.436251
0.020597 -0.117437 -0.096402
-0.330462 -0.368415 0.004734
-0.128219 0.208693 -0.333788
0.398648 -0.049350 -0.052507
0.042713 0.534023 -0.050319
-0.131429 0.134166 -0.095241
0.143672 -0.207206 0.038788
0.152964 0.153275 -0.444520
0.093366 -0.201766 0.054192
-0.160586 0.078625 -0.274198
0.327602 -0.117060 0.043056
0.023359 -0.141660 -0.255639
-0.484875 -0.127127 -0.184239
-0.102461 0.227403 -0.014330
0.097300 -0.163797 -0.414440
0.410337 0.199747 -0.116267
-0.036170 -0.102773 -0.004122
-0.017256 -0.068352 -0.534772
-0.045714 -0.154509 -0.527658
0.146166 -0.061725 0.332265
-0.170162 0.025818 -0.431252
0.183540 0.024248 -0.371938
0.469602 0.235645 -0.059876
0.059152 -0.080708 -0.557684
0.458012 0.017026 0.112535
0.251359 0.385398 0.055301
0.172537 -0.055295 -0.243508
0.002933 0.328026 -0.166405
0.424139 0.137086 0.416561
-0.575753 -0.111533 -0.166669
-0.208149 -0.023414 -0.360552
-0.355366 -0.185178 -0.329407
0.294818 0.338939 -0.331888
0.070981 -0.114610 -0.147212
0.168938 -0.138524 -0.103617
0.046857 0.532326 -0.057650
0.317178 0.207518 -0.232200
0.003683 0.068169 -0.464665
0.147707 -0.132238 -0.469956
-0.139038 -0.202358 -0.486018
0.338408 0.349953 -0.034892
-0.128605 0.013152 -0.480725
-0.468384 -0.141289 -0.291033
-0.081852 0.091793 0.104284
0.000850 -0.121199 -0.222875
0.070654 0.121748 0.338804
-0.183334 -0.121160 -0.254283
-0.169219 0.052360 -0.361565
0.053441 0.356524 -0.202736
0.183914 -0.147037 0.257449
0.362364 -0.111913 0.104765
-0.041330 0.365756 0.047109
0.066673 0.420983 0.165884
0.228679 -0.004162 0.356539
0.483706 0.169003 0.148750
-0.074314 0.134627 0.201266
0.101126 0.028603 0.347921
0.282001 0.050447 -0.180717
0.275032 0.372302 0.070892
0.344964 0.233741 0.433000
0.351156 0.309359 0.352556
0.014856 0.396528 0.015389
-0.012208 0.220461 -0.429313
0.182893 0.412034 0.170757
0.124731 -0.171787 -0.056509
0.195013 -0.141922 0.262684
0.036206 0.427357 0.115199
0.448902 0.194517 0.373934
0.175048 0.295645 -0.293758
0.388404 -0.030854 0.233286
-0.245899 -0.307468 -0.020187
0.177624 0.476239 -0.187532
-0.135479 -0.241270 -0.180087
0.497140 0.181118 -0.009532
0.181081 0.280862 0.339465
0.469756 0.120641 -0.060665
0.298598 0.114645 -0.184667
0.077890 0.116768 -0.470664
0.498212 0.292072 0.009378
-0.150982 -0.126238 -0.498257
0.060816 -0.000992 -0.503177
-0.050349 -0.120157 -0.214650
0.147503 0.446562 -0.054865
-0.231843 -0.132792 -0.392478
0.422172 0.080053 0.373691
0.312890 0.041430 -0.174930
0.076601 -0.104525 -0.275439
-0.012442 0.070129 0.257890
0.374802 0.335828 -0.330930
-0.119898 0.023095 -0.063037
-0.164113 0.032295 -0.433665
0.073328 0.521470 -0.091944
-0.516993 -0.146804 -0.258091
-0.112994 0.152677 0.068832
0.378314 -0.097643 0.117632
-0.125414 0.077010 -0.401905
0.087349 -0.095896 0.292684
0.262089 0.392769 -0.059211
0.272496 0.392846 0.139144
-0.219315 -0.184057 -0.379460
0.454530 0.032615 -0.013323
0.104285 0.493084 -0.285735
-0.027727 0.358399 0.015031
0.019659 0.207211 -0.443466
-0.202371 -0.196320 -0.261018
-0.191393 0.020203 -0.339137
0.192760 0.338177 0.315364
-0.071492 -0.049963 0.045697
-0.420514 -0.115794 -0.277739
0.464467 0.211982 0.317040
-0.212177 -0.332466 -0.127770
-0.205454 -0.190413 -0.173911
0.002329 -0.107641 -0.096782
0.142391 0.402527 -0.256305
0.037065 -0.015188 0.301205
0.251312 0.404565 -0.066274
0.223617 0.174732 -0.372898
0.353905 0.291565 -0.229758
-0.308196 -0.301339 0.073382
0.491902 0.270610 -0.124102
0.381538 -0.036469 0.239799
-0.166367 0.075550 -0.227978
0.491251 0.129602 0.096398
-0.247982 -0.238579 -0.159973
-0.114361 0.058596 -0.456460
0.110929 -0.078292 -0.336425
0.432963 0.070738 -0.088604
-0.054089 0.317748 -0.001393
-0.170920 -0.249062 -0.045172
-0.110715 -0.093720 -0.499743
0.071400 0.377453 -0.199857
-0.059309 -0.020126 0.175090
0.112925 -0.121722 -0.377883
0.073588 0.394662 -0.190815
0.078614 0.480699 -0.221729
0.124397 -0.027040 -0.461302
-0.061014 0.339709 0.033555
0.420400 0.112399 -0.116528
-0.124257 0.055664 -0.452131
-0.163214 0.116432 -0.225216
0.453206 0.182696 -0.080691
0.312677 0.298153 -0.270690
0.191511 0.027588 -0.368608
-0.087766 -0.006750 -0.511819
0.248429 0.367752 -0.277729
-0.040962 0.264040 -0.072057
-0.093300 -0.210444 -0.258786
0.302511 0.413279 -0.345388
-0.078332 0.102123 -0.433087
0.165530 0.160578 -0.433380
0.096018 -0.101925 -0.305155
-0.178507 -0.210820 -0.107265
0.061914 0.257391 -0.409456
-0.036408 -0.244126 -0.462627
-0.282404 -0.388347 -0.033121
0.063003 -0.096620 -0.237615
0.182840 0.369212 -0.226455
0.417832 0.324007 0.131946
-0.154582 0.081540 -0.317811
0.042442 0.365250 -0.179694
0.166185 0.427502 0.046570
0.421955 0.110477 0.282109
0.122203 0.155811 -0.457222
-0.077613 -0.024543 0.080863
0.370655 0.242722 -0.135710
-0.166134 0.071942 -0.227794
-0.107904 -0.099890 -0.501474
0.408173 0.303964 0.040360
0.343796 -0.005098 -0.162760
0.378904 0.115019 0.440443
-0.062734 -0.045253 0.110340
-0.325591 -0.134427 -0.235479
-0.217295 -0.050702 -0.327235
0.070834 0.062051 0.341467
0.309441 0.072378 0.355246
-0.061581 0.261232 -0.039303
0.349615 0.248306 0.420264
0.289995 -0.079477 0.292652
-0.163294 0.097597 -0.247260
0.479129 0.089806 0.097853
0.307285 -0.105971 0.250745
0.008734 -0.191497 -0.312545
-0.459984 -0.168810 -0.215248
-0.023876 0.341049 0.168101
-0.122821 -0.127025 -0.508830
-0.021359 0.333440 0.176337
0.085499 0.342242 0.281974
-0.006069 0.201303 0.267462
-0.155192 0.154412 -0.213806
0.259567 0.137842 0.375085
-0.425693 -0.197441 -0.285015
0.293973 -0.074853 -0.069291
-0.462001 -0.159289 -0.205669
-0.144642 -0.204714 -0.150661
-0.137521 0.190776 -0.157197
0.463799 0.023272 0.067368
-0.151491 0.138380 -0.153119
0.027078 -0.203315 -0.510382
0.263429 0.343959 0.288993
0.166865 0.168182 -0.429396
-0.058183 0.017590 -0.507978
-0.060964 0.354340 0.084960
-0.605722 -0.167381 -0.188359
0.427212 0.267166 0.324620
0.106483 0.492417 0.061910
0.444624 0.311636 -0.087721
0.331774 0.354149 0.273602
0.466396 0.299635 0.120494
0.139520 -0.135703 -0.480337
0.271493 0.341455 0.296386
0.455418 0.053012 -0.057751
0.000576 -0.115963 -0.067917
0.479445 0.244256 -0.070659
-0.089495 0.000582 0.054193
-0.097948 0.232525 -0.357297
0.491685 0.127868 0.014974
-0.034001 0.295569 -0.355133
-0.054193 -0.230935 -0.483040
-0.168483 -0.019119 -0.450664
0.395066 0.056565 0.288294
-0.447025 -0.139534 -0.198059
-0.036561 0.229310 0.232176
-0.341924 -0.198057 -0.299805
0.109793 -0.109924 -0.347687
0.148593 0.213677 0.356935
0.415144 0.062379 0.268293
0.060501 -0.215050 -0.428269
0.397365 -0.009163 0.239744
0.397805 0.047331 0.279985
-0.071387 -0.009584 -0.518825
0.079046 0.399491 -0.073605
0.301145 0.376889 0.165168
-0.106772 0.030245 0.003134
-0.043157 0.248429 -0.395247
-0.192500 -0.182679 -0.171375
0.473730 0.222131 -0.021563
-0.485588 -0.123911 -0.183302
0.202046 -0.205019 0.138913
0.381489 0.342263 0.133505
-0.333548 -0.352161 0.019390
0.288168 -0.159524 0.143765
0.025573 0.278423 0.262065
0.250816 -0.182705 0.106480
-0.441441 -0.194418 -0.263399
-0.142620 0.185247 -0.163666
0.293183 0.133446 -0.235235
-0.247741 -0.307067 0.007422
-0.030230 -0.154144 -0.248521
0.188744 0.421119 0.009397
-0.006660 0.383249 0.136442
0.371214 0.374124 -0.222065
0.256002 0.389615 -0.005533
0.143294 0.462477 -0.089049
0.388714 -0.077415 0.007956
0.320704 0.173404 0.454014
-0.177212 0.038099 -0.315431
0.070053 -0.192283 0.127823
0.069364 0.434634 0.125708
0.393545 -0.021512 0.232707
0.257464 0.352749 0.280325
0.196581 -0.172790 -0.034505
0.204837 0.046510 0.371137
-0.064331 -0.087897 -0.163433
0.034354 -0.139942 -0.062507
-0.108151 0.115043 0.021337
0.446266 0.100267 0.248028
0.233978 0.450946 -0.225109
-0.002286 -0.061850 -0.540606
0.038151 -0.159904 -0.288190
-0.102489 -0.059781 -0.142654
-0.345643 -0.364097 0.048622
-0.173132 0.025278 -0.428099
-0.185564 -0.138714 -0.476765
-0.092773 0.203948 0.176978
-0.116278 0.014709 -0.062671
0.234147 -0.038783 0.338500
-0.280916 -0.188797 -0.303376
-0.104993 0.242655 -0.012087
0.318030 0.174995 -0.154030
-0.229297 -0.161671 -0.285121
-0.173208 -0.267751 -0.169359
0.101960 -0.125605 -0.336808
-0.213278 -0.306389 -0.190606
0.192475 -0.092400 -0.149116
0.209048 -0.133626 -0.086140
0.307452 0.410746 -0.219914
0.485689 0.202518 -0.011054
-0.004120 0.303312 0.215772
-0.159399 -0.259927 -0.158538
0.201831 -0.157571 0.244888
-0.014665 -0.207775 -0.510500
-0.125014 0.066474 -0.057207
0.055398 -0.064641 -0.559484
0.489673 0.133900 0.003617
0.230635 0.404462 -0.269468
-0.098248 -0.005470 -0.506086
-0.498441 -0.121500 -0.178245
0.390264 0.325979 0.225090
-0.064243 0.099110 0.155295
-0.049849 -0.265238 -0.383664
-0.234407 -0.225712 -0.100134
0.466003 0.297353 0.071398
-0.128149 -0.130636 -0.509143
0.073502 -0.115908 -0.185408
0.088728 0.498260 -0.024538
0.422790 0.202991 0.404719
0.413708 0.349328 -0.189524
-0.342123 -0.071818 -0.266802
0.138706 0.351409 0.297124
0.043569 0.070850 0.322756
-0.201212 -0.198773 -0.132670
-0.130911 0.188883 -0.140997
0.142846 -0.134993 0.269317
0.017691 -0.167391 0.086461
0.467164 0.223235 0.289700
0.328892 0.205839 0.445191
0.284247 0.362115 -0.339358
0.156273 -0.114172 -0.421880
-0.048274 0.214766 0.220670
-0.117875 0.190697 -0.365050
-0.127992 0.223188 -0.163985
0.313442 0.365916 0.223661
-0.238488 -0.260481 -0.014891
0.174352 -0.181409 -0.033177
-0.247337 -0.318179 -0.057987
-0.222345 -0.068690 -0.380391
0.117302 -0.031660 -0.492822
0.155950 0.217161 -0.413865
-0.081365 0.144469 0.192608
0.493251 0.296360 -0.010459
0.354644 0.216224 0.440239
0.003672 0.300830 0.226365
0.385597 0.320961 -0.254719
0.088034 -0.183208 -0.430021
0.102576 0.332048 -0.280379
-0.298469 -0.079324 -0.280599
-0.102274 -0.085479 -0.199361
0.150558 0.173101 -0.440122
-0.125891 -0.243029 -0.338690
0.306478 0.084342 0.386952
0.209636 -0.180860 0.211271
0.335552 0.236516 -0.162059
0.401620 -0.022850 -0.086861
0.300916 0.363857 -0.348062
0.127648 0.164159 -0.454209
-0.118443 0.180413 -0.368647
0.113374 0.434261 -0.281981
0.079926 0.459559 -0.208455
-0.035193 0.294358 -0.105417
-0.073766 -0.157461 -0.237147
0.054486 0.327812 -0.318149
0.107302 0.205716 -0.441901
0.027507 -0.037441 0.281966
0.093164 0.500811 0.019333
-0.404574 -0.186426 -0.246964
-0.071623 0.255038 -0.372980
0.216300 0.244479 0.356450
-0.143862 0.120741 -0.343159
0.281819 0.388269 0.225058
0.102712 -0.071531 0.313743
0.147202 0.467038 -0.095221
0.101523 0.471695 0.136487
-0.041404 0.312297 -0.308657
0.458594 0.035960 -0.028621
0.237812 -0.018383 -0.211772
-0.188464 -0.123568 -0.261898
0.234686 0.388910 0.098810
0.364820 0.153111 -0.131056
0.446029 0.288751 0.067138
0.020589 0.007146 -0.488979
0.378382 -0.046998 -0.097431
0.029465 0.178518 0.301655
-0.149001 -0.012399 -0.222674
0.020076 0.514826 -0.053276
-0.169044 -0.282039 -0.200513
0.445224 0.139586 0.281470
0.459120 0.037978 -0.034721
-0.503513 -0.151057 -0.298611
0.343229 -0.077160 0.251405
0.360947 -0.108651 0.145467
0.338199 0.150322 0.455949
0.201296 0.467570 -0.225170
-0.177223 0.026005 -0.422580
-0.110437 -0.111152 -0.503462
-0.228451 -0.253024 -0.223608
0.290412 -0.095750 0.275876
-0.181893 -0.209343 -0.386337
-0.047290 0.110159 0.218407
0.269731 0.075822 -0.238419
-0.204217 -0.165780 -0.445343
0.003184 0.322290 -0.031584
0.206514 -0.081756 0.316423
0.426304 0.298178 -0.031487
-0.128971 -0.240997 -0.308296
-0.158049 0.138521 -0.250401
0.228241 0.015022 -0.264382
0.303840 0.355273 -0.346388
0.229920 -0.020056 0.349119
-0.037668 0.370908 0.113805
0.298963 0.376997 0.181559
-0.218803 -0.314635 -0.177114
-0.212208 -0.236252 -0.053775
-0.022934 0.386787 0.064249
0.363547 -0.103617 0.152802
0.022080 0.529742 -0.041658
-0.075656 -0.086082 -0.184165
-0.130736 0.225812 -0.231575
0.071516 -0.188977 0.141977
0.429772 0.291397 0.038823
-0.116082 0.068477 0.000182
0.270582 0.324886 0.318936
0.058449 -0.168079 -0.353437
0.283250 0.376016 -0.004307
0.124841 0.426064 -0.284733
0.461753 0.322408 -0.170609
-0.102531 -0.204068 -0.502369
-0.422545 -0.186793 -0.244438
0.022968 0.411601 0.128017
0.097529 0.448869 -0.264332
-0.102771 0.185044 -0.036177
-0.216089 -0.047835 -0.354568
0.447202 0.212549 -0.084401
0.247171 0.358992 0.276594
0.501870 0.263841 0.022956
-0.121664 0.233676 -0.319772
0.252327 0.158764 0.373183
-0.036458 -0.088771 -0.058518
0.245209 0.157522 -0.349862
-0.311402 -0.335841 -0.022011
0.202488 0.023641 0.368786
0.117221 0.502564 -0.128967
0.410910 0.244306 0.381405
-0.144811 -0.104044 -0.485224
0.495919 0.212302 0.059509
0.226632 0.425693 -0.074822
0.398444 -0.018946 -0.095596
-0.306983 -0.386661 -0.024757
-0.121060 0.174378 0.122135
0.362448 0.332917 0.074442
0.137206 0.492940 -0.138065
-0.193272 -0.302818 -0.146782
0.403402 0.330657 -0.208456
0.472297 0.166729 0.293086
0.461322 0.017945 0.051157
0.072377 -0.149066 0.225647
0.220298 0.318973 -0.237431
0.226071 -0.188857 0.050192
0.122345 0.401321 0.247163
0.003647 -0.118159 -0.068128
-0.196721 -0.020671 -0.287373
0.377706 0.273819 0.379543
0.235899 0.379496 0.269967
-0.408300 -0.198333 -0.283778
-0.144504 0.175550 -0.225655
-0.264630 -0.322208 0.000771
0.305050 -0.022204 0.321157
-0.052117 0.092418 0.167726
-0.117727 -0.146089 -0.224439
0.152094 -0.182752 0.205049
-0.112124 0.140688 -0.033629
-0.018626 0.020245 0.229676
0.337362 -0.080277 -0.068065
0.087166 0.067419 -0.458213
-0.052654 -0.263615 -0.390676
0.147868 -0.118188 -0.480643
-0.010226 0.265151 -0.401313
0.188636 -0.129637 0.275018
0.041729 -0.099394 -0.553593
-0.136231 0.239039 0.034384
0.395859 0.360948 -0.304413
0.418709 -0.045502 0.133644
0.282581 0.425757 -0.247017
-0.238501 -0.333688 -0.144123
0.237827 0.222516 -0.312420
0.046940 -0.153926 -0.043810
0.334910 0.388254 -0.137870
0.467999 0.198820 0.217902
0.418402 0.322178 0.152764
0.350940 0.191819 0.447047
0.023775 0.354258 -0.152682
0.080087 0.304288 -0.354753
-0.054619 -0.228764 -0.288672
0.289075 0.008096 0.339037
-0.068430 -0.023473 0.144839
0.041385 0.493157 0.046341
0.328270 0.372537 0.127493
0.348070 0.297211 -0.247904
0.183791 -0.031122 0.349988
-0.023264 -0.152271 -0.248599
0.157403 0.070442 -0.433837
-0.045532 0.089701 0.179822
0.296367 -0.115392 0.249520
0.275986 0.378593 0.005519
0.032006 0.178163 -0.466518
-0.310788 -0.322591 -0.001541
0.030685 0.006908 0.302196
0.291180 -0.118821 0.031725
0.371764 0.378341 -0.280396
0.248102 0.050321 -0.263361
0.045587 -0.220248 -0.411880
0.047494 0.446374 -0.078132
0.016467 -0.197618 -0.517127
0.015194 0.490055 0.008088
0.440846 0.068483 0.233601
-0.102589 0.134933 0.097032
0.183714 0.220016 -0.391642
0.019231 0.406707 0.135786
0.386455 -0.041288 0.228941
0.116306 0.460277 0.172728
-0.009564 0.396292 0.062456
-0.088296 -0.001649 0.057389
0.113927 -0.000678 0.349822
-0.091534 0.310366 0.021702
0.186953 0.337061 0.317612
-0.000704 0.321542 -0.300512
-0.068971 -0.059978 0.064801
-0.142805 0.053383 -0.123770
-0.446017 -0.194757 -0.278496
0.032693 -0.202529 -0.383193
0.247906 0.327407 0.299708
0.261571 0.082305 0.370040
0.204940 -0.147334 -0.072558
-0.116171 -0.121355 -0.506611
-0.304928 -0.192195 -0.297731
0.432519 0.090713 0.342851
0.078954 0.003474 -0.461681
-0.080501 0.224353 -0.391921
-0.352610 -0.138909 -0.338363
0.279285 0.412099 -0.158943
0.310852 0.335717 0.322974
0.038825 0.338041 -0.045114
-0.270729 -0.269150 -0.112996
-0.243870 -0.263659 -0.195192
0.402348 0.332023 0.156577
0.421789 0.306538 -0.199282
-0.418218 -0.198405 -0.285683
-0.037880 -0.115846 0.057853
-0.168543 0.003348 -0.441953
0.364890 0.181417 -0.127549
0.090433 -0.120209 -0.130162
0.473027 0.161250 0.303490
-0.243133 -0.312679 -0.060813
0.245145 0.083704 -0.333233
-0.321699 -0.337496 0.074518
-0.027623 0.276191 -0.060703
-0.002029 -0.109174 -0.203036
-0.570084 -0.113799 -0.179118
-0.230930 -0.275743 -0.212125
0.019867 0.487677 -0.048189
0.406768 0.302733 0.090113
-0.116556 -0.215430 -0.226524
0.078252 -0.199345 0.078528
0.172600 0.171495 -0.424141
-0.209260 -0.286787 -0.030704
-0.028469 0.302618 -0.143310
0.482268 0.073324 0.033385
-0.104069 0.192022 0.157755
-0.011637 0.326270 -0.271084
0.400140 -0.065259 0.086594
0.204320 0.415490 -0.279495
0.157935 0.453975 0.204910
0.099366 0.495811 0.036759
0.097122 0.514832 -0.173955
0.055396 0.401853 -0.018286
0.374213 0.190366 0.441125
0.227139 0.396665 0.061115
-0.024042 0.363341 0.137003
0.141865 0.018643 -0.408718
-0.261567 -0.186167 -0.309333
-0.361220 -0.191475 -0.266938
-0.545613 -0.158443 -0.273080
-0.115256 -0.056112 -0.173230
0.277748 0.371287 0.068804
-0.039375 0.208351 0.234742
-0.103734 0.309427 0.082939
-0.131855 0.090505 -0.070745
0.430779 0.220168 0.382867
-0.138148 0.200242 0.050476
0.184295 0.217016 -0.393751
-0.098841 -0.014383 -0.052216
0.017701 0.457500 -0.021136
0.184153 0.413642 0.176254
-0.120147 0.052160 -0.459241
-0.548527 -0.162511 -0.282978
0.185312 -0.044861 -0.224683
-0.335011 -0.126831 -0.325157
0.490382 0.163242 0.135615
0.189150 -0.207868 0.113679
-0.119129 0.162069 0.057624
-0.278534 -0.304654 0.075582
0.225274 -0.104255 -0.113067
0.024769 0.335043 -0.035479
0.277175 0.088585 0.368771
0.158563 0.432482 0.250278
0.426845 -0.038256 0.120533
0.375748 -0.091444 0.165083
0.109554 0.487830 0.103603
0.030993 0.000126 -0.511736
0.185609 0.423700 0.003556
-0.085033 -0.034940 -0.029426
0.316413 -0.129349 0.061826
0.377024 -0.006449 -0.145976
0.451837 0.291436 0.055260
0.306587 0.148028 -0.212631
-0.129093 -0.200449 -0.495711
-0.078639 0.249077 0.173325
0.316843 -0.036274 0.306340
-0.302723 -0.166718 -0.258662
-0.159263 0.026834 -0.192777
-0.095516 -0.136646 -0.224264
0.043307 -0.036129 -0.551451
-0.007644 -0.239977 -0.470127
0.191666 0.306924 -0.241437
0.302868 0.084936 -0.170359
0.217014 0.215542 -0.357167
0.123112 -0.098035 -0.190142
0.289630 0.387901 0.196965
0.442222 0.002657 -0.016919
0.075744 0.105399 -0.470807
-0.204184 -0.038003 -0.294223
-0.448377 -0.105955 -0.196306
-0.017876 0.298990 0.198784
-0.195729 -0.083961 -0.260823
-0.004011 0.381246 0.020935
0.384683 0.365221 -0.188566
0.258936 0.085839 -0.300537
0.083083 -0.188887 0.008839
-0.030149 0.064680 0.204145
-0.263963 -0.371454 -0.052724
-0.091761 0.027668 0.057508
0.440490 -0.008737 0.015122
0.317180 0.169313 0.454040
-0.118416 0.073327 -0.027973
-0.113941 0.219757 0.138504
0.030684 0.470768 0.045520
-0.080543 0.255232 -0.027347
0.284409 0.318997 0.339692
0.028218 -0.168012 -0.293983
-0.344126 -0.346311 0.060590
-0.002595 -0.194441 -0.521544
0.158223 0.094926 0.373517
-0.030888 -0.178328 -0.528711
0.096415 0.518549 -0.213261
0.026026 0.175043 -0.468390
-0.125818 -0.032587 -0.495435
-0.090821 0.218752 -0.047303
0.074022 -0.161933 -0.052903
-0.010581 0.398394 0.086690
0.007210 0.289343 -0.377984
0.302579 -0.140897 0.086377
0.437598 -0.020041 0.024697
-0.106836 -0.056135 -0.142819
0.016056 -0.247405 -0.414932
0.235006 0.249586 -0.270982
0.084673 -0.053339 0.318076
0.196311 0.275217 -0.295445
-0.114120 0.014626 -0.052428
-0.065612 -0.070622 0.077492
-0.167214 -0.027230 -0.458517
0.192599 0.358918 -0.219090
0.096262 0.476376 0.124753
0.281010 0.390022 -0.072397
0.086471 -0.190618 0.010564
0.010132 -0.161997 0.106530
-0.166370 0.073518 -0.205884
0.226193 0.169027 0.372193
0.108688 0.332964 -0.267396
-0.060497 -0.064880 -0.525762
0.153854 0.311305 -0.291135
0.206212 -0.001357 0.361322
0.178308 -0.212560 0.084844
-0.121746 -0.230030 -0.238078
-0.031422 0.068458 0.198047
0.054760 0.334664 -0.297294
-0.131577 -0.240067 -0.249628
0.314338 -0.117101 0.039257
-0.138249 -0.244055 -0.260199
0.194810 0.090619 0.374921
0.302977 0.291681 -0.261702
-0.234932 -0.234179 -0.202134
-0.271994 -0.271689 -0.112022
0.298244 -0.062118 0.303127
-0.222319 -0.203075 -0.181273
0.109965 -0.182873 0.189702
0.444468 0.300295 -0.034788
-0.255528 -0.258143 -0.163862
-0.055446 -0.076677 -0.018094
0.463426 0.294537 0.168591
0.220966 0.437647 -0.162700
0.045703 -0.130207 0.230554
0.493978 0.136746 0.103824
0.053118 0.350541 0.244161
0.070817 -0.196080 0.076238
0.375995 -0.038346 -0.115026
0.404730 -0.024442 -0.074318
-0.156203 -0.069445 -0.222921
0.101014 0.431974 0.175047
0.072630 -0.111109 -0.208335
0.400314 -0.072880 0.033076
0.388035 -0.085903 0.114271
0.161678 0.175223 -0.430556
0.107500 -0.206649 0.116252
0.031986 -0.158599 -0.281621
0.023101 0.274929 0.263206
0.049868 -0.159952 -0.306227
0.033172 -0.049579 -0.554794
-0.075505 0.097566 -0.435385
-0.086849 -0.216886 -0.265746
-0.164688 -0.221148 -0.326052
0.025616 -0.237094 -0.404934
-0.002650 -0.120456 0.182942
0.060806 0.002521 0.327694
