-0.115238 0.173476 -0.106356
-0.007256 -0.100480 -0.307086
-0.014436 -0.080816 -0.500000
0.007047 -0.274266 0.300326
-0.053884 -0.134313 -0.500000
0.149782 -0.186027 0.006903
-0.003762 0.061651 -0.330737
-0.040245 0.234007 0.021684
-0.053553 0.257326 0.009647
-0.054189 -0.299656 0.275582
-0.033302 -0.100011 -0.283816
-0.049643 -0.262271 0.290656
-0.204758 -0.137196 -0.039597
0.052743 0.032407 -0.500000
0.009190 0.129660 -0.435355
-0.168854 -0.223129 0.174443
-0.159343 -0.164797 0.420460
-0.162786 -0.046602 -0.112853
0.117902 -0.021542 -0.270689
-0.025995 0.127283 0.456961
0.018878 0.120753 -0.408609
0.011431 -0.030331 0.464489
-0.083113 -0.099198 -0.407299
0.206557 0.164666 0.032072
-0.237195 -0.168800 0.113772
-0.048630 0.128555 -0.461046
0.048164 -0.052258 -0.348161
-0.030801 0.097394 -0.500000
-0.085862 0.049913 -0.223299
0.087086 -0.222085 0.408263
0.177616 -0.195295 -0.001031
0.052535 -0.094648 -0.344912
0.000571 -0.147034 -0.474242
-0.236295 -0.207901 0.150519
0.035225 0.129755 -0.232199
-0.160004 0.226287 0.108940
0.156556 0.203145 0.338906
0.111475 -0.117297 0.430563
-0.075386 -0.069831 -0.326154
0.040268 0.132025 -0.495168
0.058637 0.112112 -0.422899
-0.022469 -0.112515 0.491506
0.243574 0.008743 -0.015983
0.247820 -0.112936 0.273850
0.002524 -0.084465 0.462358
-0.130429 0.259686 0.074430
0.308619 0.029578 0.149762
0.068024 -0.218186 -0.023724
0.002174 -0.218185 -0.103798
-0.033606 0.104524 -0.360456
-0.122476 0.071465 -0.481830
-0.158170 0.154486 -0.088723
-0.079619 0.075008 -0.230586
-0.093134 -0.267189 0.225824
-0.093407 -0.100654 -0.186882
-0.154846 -0.024172 -0.135266
-0.064762 0.263569 0.220351
-0.140890 -0.028449 -0.497593
0.241432 0.118828 0.007629
0.074081 0.208079 -0.073180
-0.009604 -0.020968 -0.500000
-0.097482 0.260219 0.235536
-0.168668 0.173792 0.326136
0.133092 -0.129743 0.459769
0.067398 0.003901 -0.328598
-0.061852 -0.052463 -0.324085
-0.074959 -0.062557 -0.239225
-0.084903 -0.121158 -0.218051
0.051229 -0.133447 -0.230954
-0.162490 -0.033240 -0.138620
0.192177 0.069593 0.421162
0.103232 -0.239883 -0.022335
-0.286286 -0.107508 0.098859
-0.250500 -0.086656 0.296542
0.086259 -0.099885 -0.171200
-0.121160 -0.031366 -0.397017
-0.128708 0.045508 -0.445268
-0.198286 -0.066637 -0.113161
0.063055 -0.224532 0.400615
-0.066229 0.116791 0.466166
-0.134462 -0.242851 0.205794
0.064386 -0.003863 -0.350851
0.126273 0.016184 -0.417095
0.121816 -0.027220 -0.500000
0.101688 0.237312 0.362739
0.030334 0.302697 0.159736
-0.021288 -0.122973 -0.500000
-0.257590 -0.133996 0.091648
-0.275062 -0.015661 0.031523
-0.082615 -0.145048 -0.155168
-0.181995 0.150462 -0.039897
-0.127842 -0.024413 -0.416258
0.097570 -0.099449 0.464637
-0.083707 -0.166258 0.424527
0.094464 0.082901 -0.416351
-0.027421 0.097844 -0.298239
0.291687 0.029801 0.179606
-0.163098 0.217535 0.110740
0.087539 0.069695 0.450798
0.127648 0.036915 -0.436407
-0.176815 -0.138806 0.410737
0.144916 0.028314 -0.215371
-0.132203 -0.268578 0.198585
-0.150133 -0.183209 -0.023131
-0.209601 0.177698 0.108145
0.118001 -0.064773 -0.433312
0.232560 0.072175 -0.018746
-0.286595 0.006424 0.046308
-0.109164 -0.059902 -0.500000
0.150732 -0.114521 -0.141906
-0.228064 0.202796 0.131349
-0.163547 -0.019060 -0.157559
0.243961 -0.110036 0.094131
0.079220 -0.037363 0.494235
-0.170047 0.103002 0.401723
0.012937 -0.276973 0.345614
-0.050501 -0.162234 -0.119034
0.164431 0.224032 0.112727
0.136223 -0.197169 0.014701
-0.039694 0.092801 -0.312030
0.104730 -0.068968 0.488423
0.142472 0.036296 -0.216011
-0.302886 -0.021600 0.249570
-0.194864 0.032960 0.445880
-0.155610 0.165381 -0.068388
0.121440 -0.069043 -0.450086
0.125149 0.070366 -0.143348
-0.171138 -0.265000 0.204383
-0.253827 -0.066780 0.326350
-0.048478 -0.297507 0.290884
-0.106924 -0.083441 -0.213292
-0.137386 0.259478 0.272084
0.195476 -0.161330 0.023176
-0.118751 0.035588 -0.382085
0.295176 0.024360 0.175463
0.148552 0.065459 0.466279
-0.023997 0.155855 -0.146554
0.093542 -0.085538 0.475846
-0.030055 0.071913 -0.275907
0.063754 -0.245636 0.349024
0.020179 -0.040286 0.470701
-0.005676 0.021893 -0.500000
-0.097299 -0.139546 0.441448
-0.046351 0.265088 0.228490
-0.054542 -0.169300 -0.119204
0.100543 0.044444 -0.359346
-0.019967 0.136871 -0.203565
-0.149237 -0.134516 0.399125
-0.123786 -0.018442 -0.395988
-0.199918 -0.053072 -0.085903
-0.073854 0.097424 -0.379637
-0.072360 0.102079 -0.413502
0.027676 -0.229710 -0.083655
0.240696 0.126693 0.236734
0.215965 0.184914 0.046052
0.010807 -0.225485 -0.072868
-0.091639 -0.043926 -0.238974
0.027037 0.287233 0.151963
0.033757 -0.131940 -0.234140
-0.000526 -0.121914 -0.262958
-0.155941 -0.017025 -0.154433
0.211848 0.192205 0.251535
-0.242386 -0.076408 0.303172
0.106304 0.122149 -0.113494
0.062078 0.195106 -0.057387
-0.117943 0.026053 -0.202081
0.132728 -0.008069 -0.240498
0.090350 0.046482 -0.305660
0.057852 0.230358 0.376408
0.066654 0.211917 0.407593
0.185859 -0.252394 0.184011
0.222665 0.129567 0.012451
-0.264647 -0.089001 0.335788
-0.033841 -0.159657 -0.118446
0.143440 0.197492 0.338367
0.014642 -0.307853 0.099681
-0.190520 0.145919 0.394730
0.232082 0.180705 0.238361
0.015984 -0.126559 -0.382341
-0.027327 0.277468 0.228232
0.035130 0.001478 0.467229
0.057241 0.053595 -0.269396
0.032300 0.305722 0.180198
0.075428 0.007238 -0.315690
0.162400 -0.095309 -0.101319
-0.086034 -0.050781 -0.234215
-0.163657 0.162595 -0.067641
-0.108754 0.280184 0.267252
-0.046526 0.153828 -0.176167
-0.027905 0.044355 0.459388
-0.120702 -0.209529 0.017100
-0.109295 -0.164395 0.452708
-0.078950 -0.103435 -0.230834
0.104667 -0.178490 0.395276
-0.094827 0.102963 -0.490269
0.059820 0.102146 -0.265331
0.097385 -0.044771 0.457105
0.021024 0.235597 -0.032748
-0.067546 0.288371 0.211263
0.233981 -0.094697 0.304949
0.042554 -0.053387 -0.327569
0.254004 -0.158934 0.249429
0.204353 0.207296 0.063287
-0.052564 0.110256 -0.403929
0.029155 0.013703 -0.500000
-0.038525 -0.049167 -0.355710
0.100670 0.027436 -0.500000
-0.024937 0.236735 0.001960
0.082393 0.210286 0.351941
-0.182629 -0.018586 -0.106922
-0.050090 -0.285294 0.048664
-0.184876 -0.162319 0.389467
0.080337 -0.266221 0.147476
0.006798 -0.078453 0.488761
-0.129580 -0.276917 0.244575
0.016033 0.204698 0.394668
-0.013477 -0.035259 -0.360625
0.071929 -0.067794 -0.335018
-0.086443 -0.277985 0.057179
0.079276 0.085175 0.484014
-0.057206 0.125361 -0.457904
-0.084462 0.267499 0.057057
0.151385 0.051679 0.442758
0.210078 0.116477 0.027982
-0.026089 0.056261 -0.500000
0.132235 -0.148500 0.424745
-0.276800 0.089637 0.165979
-0.185426 0.193030 0.118857
0.047028 0.236000 -0.003565
-0.077728 -0.100982 -0.366614
-0.086167 -0.141074 0.457199
0.228095 0.028138 0.413850
0.221154 0.020857 0.376245
-0.105580 -0.163869 0.411820
-0.115418 -0.247849 0.009987
0.088376 -0.101143 -0.500000
0.021712 0.119085 -0.500000
-0.163462 -0.225549 0.198680
0.065486 -0.238259 -0.058741
0.006313 -0.268850 0.086708
0.246484 -0.146542 0.296479
0.063241 -0.069098 -0.291366
0.012020 0.102690 -0.351155
-0.155051 0.008229 0.434734
-0.279213 -0.003028 0.028324
0.157664 0.218264 0.110368
-0.203949 -0.138946 0.349609
0.280223 -0.008580 0.116522
-0.125107 0.005726 0.455139
-0.203966 0.148851 0.375053
-0.141155 0.038977 -0.164605
-0.199541 0.144562 -0.041191
-0.032359 -0.134430 -0.434650
-0.150101 0.154903 -0.094917
0.072168 -0.193183 0.407132
-0.040186 -0.159116 0.455636
-0.168127 0.025644 0.467255
-0.214863 0.215128 0.120736
-0.115113 -0.000633 0.483836
-0.139564 -0.190320 -0.003952
-0.055533 -0.125146 0.452228
0.132743 -0.225348 -0.026772
0.106388 -0.071648 0.447414
0.055918 0.066138 -0.357159
-0.059768 -0.273942 0.081834
-0.009176 0.108092 -0.500000
0.116582 -0.092902 -0.173907
-0.079227 -0.007510 0.492344
-0.003038 -0.145837 -0.465093
0.075482 -0.265146 0.126637
0.128606 -0.098446 0.474538
-0.103575 -0.110579 -0.197909
0.163566 -0.103173 -0.111871
0.084450 -0.209624 -0.018023
-0.105441 -0.275156 0.216093
0.124218 0.072551 -0.186161
-0.207075 0.102067 0.412096
-0.067803 -0.036937 -0.349045
0.069480 -0.234755 0.397080
0.014689 -0.044581 0.490087
-0.047096 0.115200 0.446854
-0.276436 -0.004800 0.233346
0.147391 -0.093145 -0.157526
0.038194 0.267965 0.157337
-0.085552 -0.294391 0.269096
-0.149039 0.238120 0.100581
-0.046996 -0.118973 0.478733
-0.034520 -0.288836 0.055221
-0.207547 0.122762 0.381295
-0.098408 0.077108 -0.257477
0.129933 -0.029573 -0.433144
0.177377 0.207030 0.325758
0.131106 -0.086075 -0.124400
-0.199174 0.068213 0.437285
-0.039358 -0.034698 -0.360163
-0.027466 0.114286 0.464401
0.032611 -0.106517 -0.216550
-0.110460 -0.255732 0.245851
-0.013579 0.150791 0.449710
-0.033171 0.135180 -0.489987
0.051481 -0.045384 -0.312480
0.266525 -0.134152 0.278902
0.009801 -0.281856 0.117025
0.019051 -0.087860 -0.500000
-0.291501 -0.004034 0.274267
0.102984 0.221866 0.382315
-0.146609 0.003531 -0.180389
-0.030075 0.237643 0.032645
-0.187216 -0.178634 -0.037724
0.091697 -0.041768 -0.255087
0.063792 -0.023871 -0.500000
0.107979 0.260178 0.105191
0.119597 0.126291 -0.093422
-0.139426 0.054841 -0.187468
0.057347 -0.304639 0.131018
-0.273505 0.069550 0.180367
0.047428 0.191720 0.411198
-0.237849 -0.122894 0.363403
0.064709 0.001935 -0.346484
-0.073716 -0.033599 -0.278805
0.127873 -0.134519 0.423902
0.177329 -0.255112 0.174881
-0.127594 -0.067385 -0.466722
-0.120465 0.150867 -0.068836
0.213219 0.118671 0.017381
-0.132907 0.147681 -0.106676
0.065343 0.227922 -0.017417
-0.187069 -0.159471 -0.012090
-0.140876 -0.211605 -0.014352
0.200676 -0.226765 0.189217
-0.206577 0.206338 0.133496
0.132284 0.022520 -0.441708
0.219220 -0.169972 0.266682
-0.097496 -0.014792 -0.317190
0.271062 -0.105345 0.301144
-0.071480 0.247422 0.019342
0.094867 0.032621 -0.337580
-0.023035 -0.096055 0.492679
0.141951 0.045774 -0.165000
-0.052836 0.082580 -0.256662
0.094136 -0.011921 -0.234236
0.095864 0.185226 -0.047705
-0.003683 -0.277380 0.291652
0.042042 0.216880 -0.012497
-0.281050 0.062606 0.183198
-0.259495 0.058093 0.034718
-0.034130 -0.054038 -0.500000
0.038102 -0.267285 0.328795
-0.113270 -0.056510 -0.401326
0.066682 -0.199750 0.400817
-0.207187 -0.071055 -0.081710
0.103330 0.236700 0.350250
-0.102290 -0.139841 0.433628
0.252115 0.049199 0.006919
0.024561 0.114985 -0.199301
0.190215 0.203150 0.095329
-0.064132 -0.032529 0.464712
0.167298 0.051156 0.415558
-0.289426 -0.088910 0.081263
-0.169964 0.089448 0.404511
-0.071616 -0.293557 0.281528
-0.062460 -0.140874 -0.140551
-0.270232 0.052785 0.198919
0.201334 -0.203061 0.242791
-0.020435 0.053774 -0.359285
-0.109048 0.235236 0.278298
-0.060510 0.068174 -0.500000
0.284165 0.048692 0.190652
0.047804 -0.232905 0.386918
-0.032178 0.266993 0.213388
0.106455 -0.295651 0.142624
0.218616 -0.193956 0.210026
-0.137330 0.040336 -0.482909
0.175853 0.239536 0.100352
-0.262628 -0.056153 0.273392
0.258538 -0.100492 0.284855
0.112428 -0.191425 0.398109
0.105667 0.059359 -0.367588
0.215546 -0.157646 0.069368
0.249042 -0.103920 0.329325
-0.084077 -0.267586 0.028499
-0.104075 0.175641 -0.106826
0.064755 0.062657 0.494432
0.003347 -0.138162 -0.435060
-0.042866 -0.156486 0.471345
-0.049553 0.239739 0.045247
-0.185222 0.168213 0.333575
0.063535 -0.083548 -0.345284
0.048652 0.049535 0.496891
-0.099500 -0.252596 0.059994
0.076131 -0.099880 -0.183474
0.106121 0.074790 -0.431720
0.056779 -0.012210 0.491312
0.026400 0.073177 -0.328113
-0.215095 0.116157 -0.003877
0.121133 0.020307 -0.368487
-0.308337 0.006804 0.249512
0.196505 -0.044911 -0.103154
-0.018935 0.120391 -0.406742
-0.007163 0.123036 -0.411500
0.114940 -0.224235 -0.039537
0.300510 0.012607 0.128748
-0.240863 -0.179333 0.118096
-0.169525 -0.167028 0.391827
-0.036533 0.082683 -0.500000
0.205443 0.179847 0.296026
0.050339 0.059213 -0.264472
0.222212 -0.151408 0.270840
-0.031208 0.001810 -0.500000
-0.273250 -0.025886 0.290080
0.080855 -0.070078 0.466091
0.202929 0.019496 0.384461
0.291645 -0.051976 0.133840
0.032737 0.253830 0.000041
0.022129 0.099125 -0.338293
-0.112933 -0.288328 0.223786
0.009605 0.025490 -0.500000
0.257652 0.086921 0.007715
0.095742 -0.222572 0.398561
0.053775 -0.129243 -0.442436
-0.228626 0.069142 0.018404
0.240672 0.068960 0.022313
-0.186159 -0.230878 0.158589
-0.015056 0.056718 0.474668
-0.083479 0.043382 -0.500000
-0.119864 -0.273660 0.253097
0.052811 0.028103 0.480998
-0.092763 0.175710 -0.120312
0.209033 0.008207 0.376956
-0.097650 -0.256730 0.247134
-0.186278 -0.205279 0.167209
-0.183696 -0.119766 0.380520
-0.121984 -0.287888 0.222037
-0.191195 -0.018096 -0.113319
0.209436 0.201847 0.073647
0.243178 -0.122606 0.049446
-0.098910 0.174169 -0.098901
-0.135506 -0.248331 0.025600
-0.206442 -0.061740 -0.099280
0.085511 -0.213472 -0.056401
0.002967 -0.268293 0.098270
-0.224738 0.189608 0.104480
-0.032372 0.090252 0.488048
0.031999 -0.098929 -0.265564
-0.181961 -0.157100 0.372988
0.022791 -0.252719 0.317649
0.074341 0.028212 -0.500000
-0.282277 -0.102497 0.080239
-0.079622 -0.123207 -0.475617
-0.185635 0.147524 0.346999
-0.007966 0.118736 -0.392658
0.247344 -0.142364 0.082295
0.035004 0.117458 -0.410241
0.106315 -0.091573 -0.160777
-0.037580 -0.003342 -0.500000
0.179562 -0.234985 0.220013
-0.293361 0.100865 0.176586
-0.008524 0.137934 -0.498597
-0.252633 -0.182603 0.147495
-0.136668 0.040933 -0.491109
-0.178290 0.013043 -0.143905
-0.009231 -0.127167 -0.397744
-0.202251 -0.197899 0.178120
-0.013418 0.025958 -0.360625
0.251007 0.104838 0.216193
-0.004070 -0.072331 -0.360142
0.104030 -0.202820 -0.012546
0.068811 0.032505 -0.500000
0.107141 0.000954 -0.264026
-0.091052 -0.102720 -0.434319
0.201530 0.170538 0.036325
-0.102643 -0.052456 -0.357338
-0.208955 -0.180044 0.149849
0.072887 0.062881 0.492776
-0.123358 -0.070474 -0.452225
0.238903 0.150291 0.216321
-0.139186 -0.020405 -0.451404
0.116708 0.104718 -0.116775
-0.035568 -0.109046 0.455508
0.107974 0.124261 -0.126420
0.309102 0.030843 0.158411
-0.147789 0.253082 0.293286
-0.039634 -0.061650 -0.500000
-0.108475 -0.010625 -0.304480
0.187689 0.185370 0.307292
-0.175515 0.134900 -0.029735
0.137327 0.242538 0.129511
-0.276751 0.104275 0.158473
-0.136212 0.238532 0.095516
0.019325 -0.106221 -0.281916
-0.041215 0.062647 -0.305688
-0.052097 -0.282787 0.254289
-0.145291 -0.159546 0.433112
-0.008681 -0.110211 -0.257492
-0.061494 0.023335 -0.328684
-0.030541 0.106657 0.458598
0.093171 -0.036345 -0.249451
0.120545 -0.035551 -0.375701
-0.082520 0.110624 -0.500000
-0.065163 -0.060318 -0.318666
-0.004186 -0.117798 0.473627
-0.160452 0.203837 0.300546
0.133840 0.117041 -0.103401
-0.044254 0.029342 -0.500000
0.235338 -0.134853 0.298964
0.141077 -0.118204 -0.138236
-0.126617 -0.013795 0.448007
0.113862 -0.085909 0.483389
0.003512 -0.111619 -0.355313
-0.198824 0.099481 -0.014905
0.255860 -0.080002 0.106786
0.051097 0.301749 0.171619
0.198247 0.149508 0.038946
-0.014651 -0.259342 0.327728
0.155727 -0.234820 0.169048
0.237664 -0.129311 0.086963
-0.256747 -0.051074 0.282567
0.204198 -0.198707 0.203745
0.265436 0.127100 0.239114
0.212059 -0.211937 0.199638
-0.144770 0.001708 0.480769
0.285301 0.060744 0.152739
-0.092760 -0.237613 0.052339
-0.028552 -0.088878 -0.335380
0.211895 -0.054205 -0.060494
0.199894 0.188671 0.086806
0.120596 0.116210 -0.101929
-0.070787 -0.108072 -0.218763
-0.013540 -0.098927 -0.312778
0.005583 -0.085241 0.487683
-0.123908 0.049855 -0.234800
0.007895 -0.130376 -0.410283
-0.180032 -0.095993 -0.053744
-0.057279 0.272943 0.207128
0.253353 0.097384 0.208430
-0.018689 0.023034 0.499422
-0.187919 0.121355 -0.063253
-0.062762 0.136167 0.458425
-0.018953 0.135917 -0.500000
0.289211 -0.091044 0.099042
0.260811 0.077807 0.193596
0.241433 0.026077 -0.047527
0.158864 -0.076040 -0.094433
-0.192267 -0.163378 -0.015228
0.093847 0.059897 0.456838
0.247845 -0.053498 0.367762
-0.022423 -0.298899 0.094181
-0.116203 -0.028681 0.485261
-0.048635 -0.142838 0.481177
0.028871 0.271188 0.159358
-0.070379 -0.010457 0.495487
-0.110087 -0.044286 -0.279392
0.032084 -0.195543 -0.064117
-0.173184 0.021998 -0.158499
0.061947 -0.111367 -0.369548
-0.269675 -0.084611 0.109254
-0.018335 -0.092716 -0.500000
0.014249 -0.115134 -0.500000
0.047850 -0.044716 0.485701
0.135738 -0.109471 0.463909
0.059511 -0.210382 0.394725
-0.080334 -0.136935 0.455495
0.240755 -0.185571 0.263055
0.131126 0.135912 -0.090650
-0.237498 -0.075916 0.322694
-0.080362 -0.006109 -0.278949
-0.174993 -0.144303 -0.060727
-0.102645 -0.262421 0.220129
-0.048201 -0.072782 -0.500000
0.097352 -0.277965 0.165904
0.048187 -0.040878 0.465546
0.122719 0.006933 -0.368302
0.013226 0.123715 -0.416615
0.210896 0.002295 0.375510
-0.018328 -0.032013 0.493641
0.259297 -0.157079 0.275674
-0.256717 -0.157950 0.105501
-0.156018 0.251163 0.081684
0.129113 -0.269185 0.139721
0.080606 -0.098989 -0.371668
-0.078043 0.266123 0.265680
-0.174272 0.214249 0.337868
-0.148163 0.215586 0.071853
0.233480 0.161443 0.042980
-0.046521 -0.138295 -0.469375
-0.252805 -0.110064 0.085114
-0.095253 -0.229646 0.038067
0.097074 -0.047451 -0.360425
-0.104205 -0.102664 -0.474327
-0.059679 -0.177175 -0.127456
0.008931 -0.281987 0.339128
0.029403 -0.007491 -0.360625
0.175548 -0.095114 -0.128271
0.011784 0.269412 0.178441
0.182022 -0.222133 0.182461
-0.073762 -0.278088 0.071540
-0.080758 -0.083239 -0.248558
0.060234 -0.064328 -0.500000
0.105540 -0.014160 -0.346691
-0.188386 0.105727 -0.036069
0.008523 0.207372 0.436756
0.031913 0.223005 0.414834
0.001450 0.265051 -0.007940
-0.168575 -0.047551 -0.127772
0.235584 0.147551 0.260706
-0.003106 0.031731 0.492408
-0.239014 0.185670 0.147991
-0.102381 0.259357 0.072699
-0.266489 0.058578 0.206386
-0.111493 0.038741 -0.191166
0.119539 0.251642 0.139879
-0.009726 -0.202108 -0.123432
-0.246603 0.012734 0.027581
0.032126 -0.029936 -0.500000
-0.175695 -0.198224 0.004843
0.152909 0.061279 -0.165815
0.127313 -0.056893 -0.451542
-0.040316 0.099461 0.489844
-0.077416 -0.141122 0.464850
0.028893 0.090696 -0.332070
-0.092062 0.035863 -0.319485
0.048799 -0.300571 0.133682
-0.059211 0.117671 -0.437153
-0.069276 -0.258300 0.032427
0.112327 -0.033040 -0.246202
0.290927 0.083175 0.205177
-0.109974 0.088435 -0.475186
0.009013 -0.210131 -0.063481
0.183918 -0.204788 0.214754
0.309020 -0.010444 0.131367
0.085664 0.224843 -0.053602
0.114525 -0.126088 0.424732
-0.021244 0.188059 0.420042
-0.033445 -0.029824 0.467698
-0.020025 -0.110207 -0.272428
-0.125767 0.004799 -0.377005
-0.271285 -0.153439 0.122308
-0.254090 -0.091955 0.297934
-0.050447 -0.137745 -0.485600
0.021920 0.120401 -0.194464
-0.071742 0.283355 0.212984
-0.041894 0.120182 -0.500000
-0.187021 -0.217646 0.155836
-0.245159 0.152888 0.125747
-0.010965 -0.102751 -0.500000
0.261936 -0.075906 0.114321
0.104762 0.004146 -0.258879
0.116982 0.068846 -0.449916
0.000271 -0.304966 0.101022
0.063911 -0.132525 -0.225704
-0.034697 0.075030 0.493846
-0.049227 -0.188522 -0.141366
0.186197 0.187485 0.049090
-0.250725 -0.090476 0.098288
0.166432 0.233847 0.072965
0.011409 -0.226529 -0.086714
-0.144268 0.032021 -0.157463
-0.068976 0.175108 -0.124426
0.275301 0.027578 0.172482
0.094359 -0.107016 -0.457305
-0.079880 -0.094438 -0.190420
0.078148 0.047147 -0.342875
0.162579 -0.268018 0.187183
-0.227224 0.205818 0.117457
0.044307 0.224830 0.382103
0.038310 0.072298 -0.283035
-0.078816 -0.022138 0.457392
0.216515 0.048234 0.410156
0.194322 0.197100 0.091737
-0.148104 -0.181387 0.000499
-0.290365 -0.023515 0.240750
-0.265905 0.065889 0.208161
0.092873 -0.274759 0.120539
-0.076532 0.083388 -0.500000
0.116813 -0.008065 -0.215764
-0.080180 0.257966 0.231394
0.245981 0.028749 -0.043476
-0.005929 -0.251344 0.320981
0.019975 -0.308074 0.107416
-0.052273 -0.118927 0.465409
0.032640 -0.142445 -0.495873
-0.077880 -0.002241 0.466132
0.220842 0.035385 -0.011316
0.060166 0.197249 0.378102
-0.216839 0.104617 -0.042686
-0.063594 -0.030058 0.492638
0.076890 -0.297612 0.114474
-0.032899 -0.091296 -0.340612
-0.266493 -0.010808 0.071117
0.282069 -0.039374 0.097536
-0.137002 0.059744 -0.205532
0.150106 -0.275639 0.179713
0.024388 0.277389 0.156263
-0.063723 0.105778 -0.409712
0.086853 0.098204 -0.437804
-0.031182 -0.019804 -0.500000
-0.141547 -0.217036 0.031617
-0.116222 -0.219954 0.006303
0.119080 -0.110411 0.432162
0.219310 -0.156243 0.251173
-0.114768 0.165839 -0.078263
0.162253 -0.185138 0.032230
0.005383 0.281090 0.208019
-0.003948 0.160692 0.435277
0.002745 0.166484 0.434362
0.068037 -0.203319 -0.057221
0.040816 -0.197573 -0.077244
0.128695 0.244381 0.132772
0.063474 0.082474 0.467220
-0.194803 0.047579 0.415049
0.200964 -0.015099 -0.066324
-0.015050 -0.025932 0.463880
-0.026877 0.005730 0.495383
0.181749 -0.074674 -0.125840
0.272196 -0.060541 0.127092
-0.084126 0.253591 0.240103
-0.099118 0.072371 -0.368978
-0.243738 0.103453 -0.003159
0.006744 -0.263629 0.350443
0.154558 -0.274814 0.170782
-0.183514 0.103900 0.422133
0.044403 -0.106183 -0.256120
-0.237760 0.185603 0.115196
0.099962 0.088243 0.482612
-0.169113 0.228414 0.308358
0.063157 -0.050975 -0.347107
-0.067178 -0.036752 0.471335
0.008902 0.103246 -0.230021
0.016413 -0.097022 -0.284005
-0.021290 0.066941 -0.288777
-0.088665 0.260590 0.029661
0.008537 -0.045004 -0.500000
-0.047452 -0.144019 0.440284
-0.172826 0.189538 0.362679
0.051437 0.045185 -0.307903
0.100638 -0.185645 0.435235
0.269048 -0.098690 0.296940
-0.052174 -0.024580 -0.360501
-0.200491 0.117375 -0.055888
0.028993 0.106258 -0.261672
-0.005611 -0.105823 -0.252379
-0.073387 0.118672 -0.486948
0.075805 0.073377 -0.298241
-0.121040 0.173469 -0.092448
0.055257 -0.004987 -0.500000
-0.110179 -0.279695 0.259191
0.022067 -0.200168 -0.101514
-0.114813 0.061870 -0.424614
0.090409 -0.036524 -0.304079
0.265817 -0.116694 0.312206
0.293759 -0.044481 0.137785
0.160073 0.202642 0.086728
0.055607 -0.132926 -0.500000
-0.087343 -0.259724 0.067005
-0.167831 0.133337 0.374784
0.037781 0.227238 0.402324
0.061977 0.042635 -0.350233
-0.020052 0.232150 0.012620
0.109173 -0.009806 -0.352662
-0.168446 0.129885 0.384806
0.038818 -0.033616 0.493996
-0.135306 -0.008787 -0.436714
0.280935 0.021265 0.172784
-0.041198 0.157250 0.471986
-0.043017 0.042788 -0.358796
0.265806 0.089046 0.175239
-0.152386 -0.227966 0.023180
-0.058809 0.078957 0.461738
0.034893 0.065383 -0.343588
0.061011 0.242961 -0.023069
-0.219766 -0.142806 0.370023
-0.056710 -0.091714 -0.327156
-0.187116 -0.181404 -0.008749
0.046448 -0.078388 -0.500000
0.250529 0.001927 -0.036334
-0.003918 -0.130519 -0.408685
0.206500 -0.009761 -0.042998
0.110604 -0.235220 -0.007575
-0.238598 0.100220 0.007971
-0.255373 -0.078294 0.289157
-0.142845 -0.272126 0.234971
0.005286 0.281937 0.166025
-0.159654 -0.035253 -0.125307
-0.288853 -0.081320 0.094833
-0.039238 -0.129562 0.485527
-0.210748 -0.212100 0.185818
-0.031298 0.165385 0.426423
-0.127945 0.058612 -0.466687
-0.100395 -0.009342 -0.274339
0.131850 -0.115631 -0.171699
-0.161149 -0.227557 0.183146
-0.115764 -0.167122 0.448356
0.234023 0.175434 0.232954
-0.126981 -0.055333 -0.500000
0.296641 -0.057395 0.097428
0.213042 0.032582 0.385335
0.099317 -0.130167 0.444154
0.271221 -0.084075 0.321814
0.131299 -0.081054 0.456868
-0.196048 0.131743 0.361319
0.030697 0.231593 0.003700
-0.052365 -0.034068 0.469515
0.015619 -0.035497 0.492393
0.045728 0.197981 0.419925
0.076679 -0.196687 0.380345
-0.038733 0.163117 -0.175479
0.179316 0.037221 0.408846
-0.103558 0.140014 -0.117918
0.040318 -0.239433 0.336082
0.258270 0.072179 -0.004669
0.013201 0.289152 0.205217
0.088324 -0.054302 -0.269801
-0.182495 -0.208658 0.174211
-0.029738 0.070581 -0.325032
0.179499 0.078162 0.426358
-0.100428 0.072501 -0.375697
0.069885 -0.270855 0.114376
-0.143497 -0.018258 -0.484481
-0.139824 -0.263529 0.238723
-0.179489 -0.128403 0.366516
0.004399 -0.297732 0.112601
0.004043 -0.302709 0.107715
0.102688 0.180240 -0.053289
-0.030201 0.136452 -0.476743
-0.149365 0.044606 -0.173366
-0.081637 -0.107828 -0.425738
-0.105521 -0.092654 -0.206264
0.030416 -0.297979 0.126601
-0.166044 0.208553 0.300765
0.016591 -0.263895 0.308448
-0.073819 -0.025848 -0.276053
-0.041362 -0.120869 -0.500000
-0.183148 0.176286 0.372644
0.111542 -0.267512 0.174667
-0.228603 0.094658 -0.033157
-0.197185 -0.118733 -0.080631
-0.024132 0.136450 -0.471583
0.060676 -0.018675 0.494178
0.212761 0.147345 0.065505
0.117913 0.281325 0.124405
0.117951 0.277057 0.111739
-0.024326 -0.286605 0.057980
0.006708 0.029619 -0.360625
-0.053485 0.134307 -0.148596
0.062705 0.213613 -0.019389
0.182628 -0.066937 -0.122742
-0.039882 0.029742 -0.360232
0.094098 -0.036775 0.486752
0.155295 0.054687 0.455131
-0.020135 -0.272740 0.098472
0.217056 0.011607 -0.024426
0.072119 0.050879 -0.329762
0.045475 0.288938 0.142457
-0.091510 -0.010457 -0.355022
0.299957 -0.048681 0.129932
-0.196323 -0.087722 -0.101719
-0.006427 -0.266674 0.088728
0.016758 0.142528 -0.191642
-0.038131 0.090769 0.491309
-0.285821 -0.094592 0.078460
0.132939 0.230613 0.354102
0.095560 0.091609 0.454364
-0.215466 0.165898 0.120427
0.239301 0.132366 0.244568
0.219551 -0.011006 0.399169
0.062369 -0.096844 -0.207813
0.053246 -0.127045 -0.434686
0.241032 0.183113 0.251932
-0.122628 0.017885 -0.399544
0.070652 0.196473 0.389803
-0.046325 -0.092014 -0.337886
0.085443 -0.007904 -0.500000
0.073698 -0.067984 -0.500000
-0.085402 0.143022 -0.100512
0.117498 0.029566 -0.392986
-0.204160 0.062220 0.415855
0.164503 -0.184429 0.001732
-0.013085 -0.040731 0.496353
-0.199860 -0.151973 0.389883
-0.190241 0.053293 0.408326
0.065000 -0.104740 -0.232071
-0.254755 -0.166615 0.111672
0.103070 -0.226198 -0.046795
-0.024832 0.256172 0.038229
-0.044046 0.024350 0.481907
-0.110087 -0.003990 0.486678
-0.027319 -0.078519 -0.341538
-0.263393 0.077692 0.184848
-0.171642 0.057091 0.447694
0.253726 0.044200 -0.029451
0.004204 -0.072617 -0.357354
0.069317 -0.006857 -0.343226
0.005455 0.172578 0.443302
-0.051787 -0.136018 -0.465013
0.207397 0.134101 0.052065
-0.009590 0.004244 0.460953
0.021024 0.090388 -0.244075
0.270604 -0.085283 0.311557
-0.251323 0.038465 0.002122
0.300876 -0.032362 0.108168
0.092751 0.080608 -0.406666
-0.190570 -0.038612 -0.135249
-0.066019 -0.005656 0.463165
-0.042822 -0.135321 0.442863
0.051368 0.215375 0.416573
0.300131 0.028596 0.174953
0.194114 -0.196051 0.231414
-0.210067 -0.110593 0.374595
-0.158681 0.207404 0.092446
-0.020856 -0.086816 0.457834
-0.067055 0.259672 0.228601
0.130850 0.160936 -0.107352
-0.119017 0.067584 -0.500000
-0.123133 0.260124 0.252782
-0.163341 -0.045430 -0.121748
0.030465 0.059769 -0.500000
0.238924 0.132479 0.213452
0.156669 0.080004 0.426395
0.209953 -0.002042 0.403469
0.015886 0.176635 0.416245
0.113468 -0.107018 0.475402
0.164677 0.213440 0.106689
-0.086300 -0.296839 0.246838
-0.009610 0.269979 0.014600
-0.096237 0.081490 -0.234926
0.197732 -0.182427 0.011235
0.076896 -0.117924 -0.500000
0.036548 -0.227281 0.362687
-0.134758 0.013065 0.455112
-0.197606 0.117352 0.370806
0.071300 -0.122506 -0.229512
0.137778 -0.128520 0.439003
-0.018574 0.260209 0.033419
0.151034 0.065427 -0.157362
0.216020 -0.133764 0.053828
-0.164120 0.122255 -0.066230
0.057886 -0.216009 0.363074
0.112614 0.039440 -0.187836
-0.076426 -0.025825 -0.268991
0.267094 0.120637 0.235619
-0.225540 -0.185286 0.125059
-0.267929 0.124587 0.190004
0.131188 -0.123824 -0.152902
0.117142 -0.190976 0.420832
-0.050357 -0.293417 0.076064
-0.167520 0.140986 -0.036326
-0.108559 -0.253024 0.228957
0.113139 -0.198051 0.415898
-0.026076 -0.160858 -0.122454
-0.030555 -0.258490 0.301104
-0.053975 -0.136902 -0.479065
0.168677 0.064299 0.415153
0.018038 -0.281599 0.338109
0.154159 -0.238700 0.201623
0.244238 -0.141106 0.300268
0.033744 -0.000644 0.493633
-0.073840 0.065821 -0.341990
-0.046486 -0.103321 -0.500000
0.019670 0.014669 0.461424
-0.099016 -0.049526 -0.234696
-0.163296 0.227960 0.066325
0.108049 0.023697 -0.202334
-0.130909 -0.244821 0.038667
0.023094 -0.061956 -0.500000
0.067734 -0.223355 0.356757
0.255531 -0.136427 0.259702
0.170952 -0.052327 -0.090946
-0.176303 0.014452 0.466028
-0.251205 -0.180286 0.122620
-0.193062 0.229735 0.090990
-0.092290 -0.010635 0.456852
0.097578 0.072064 -0.402744
0.045241 0.265223 0.163872
-0.104240 -0.088011 -0.431878
-0.010053 -0.299446 0.102434
0.087190 -0.070434 0.456929
-0.164887 -0.262707 0.185923
0.223339 -0.216878 0.215535
-0.261188 0.012186 0.016338
0.090232 -0.019416 -0.500000
0.043087 0.049645 -0.360196
0.112889 -0.076908 -0.438709
-0.027888 -0.294610 0.281941
0.219915 0.165473 0.070415
-0.091826 0.082174 -0.377984
-0.265071 0.048277 0.002239
-0.170635 0.068596 0.437500
0.047920 -0.205381 -0.043715
0.054821 0.124529 -0.500000
-0.040269 -0.122142 -0.403167
0.099769 -0.037884 -0.296468
0.130331 -0.011079 -0.246213
0.032855 -0.210686 -0.047921
-0.247433 0.055224 -0.008104
-0.282688 0.017134 0.214464
-0.036642 -0.005703 -0.360625
0.205664 -0.181222 0.245273
-0.114813 -0.063808 -0.500000
-0.065146 -0.103056 -0.361911
-0.105859 -0.221998 0.025989
-0.114464 0.259442 0.293418
-0.209056 -0.105400 0.345368
-0.072435 -0.115216 -0.500000
-0.091962 0.158066 -0.089388
-0.057929 0.077351 -0.354999
0.267692 -0.075938 0.338968
0.230483 -0.034207 0.380934
-0.154563 0.183892 0.350264
-0.083716 -0.022491 -0.311285
-0.256516 -0.177441 0.143148
0.225508 0.154282 0.063952
0.023460 -0.224932 -0.091539
-0.009131 0.061508 -0.350107
-0.022367 -0.185115 -0.090706
-0.151177 0.216948 0.100015
0.126332 -0.288131 0.161747
-0.169453 0.118602 0.390466
-0.061526 0.002849 -0.357003
-0.007369 -0.003441 -0.500000
-0.227264 -0.132766 0.370755
0.298032 0.066197 0.191883
-0.124105 0.059797 -0.450790
0.100633 -0.261687 0.162967
0.086463 0.186347 -0.044596
0.241537 0.014101 0.391724
-0.164221 0.227563 0.327241
-0.256737 0.031020 0.005990
-0.143772 -0.011082 -0.478248
-0.289361 -0.062284 0.086740
-0.164809 0.207644 0.081344
0.162603 0.226779 0.327979
0.029838 0.225180 -0.001258
0.133361 0.213602 0.359966
-0.013128 -0.050335 0.461700
-0.034360 -0.279354 0.095370
-0.273145 0.054517 0.226303
0.133884 0.031319 -0.453379
-0.175228 0.002273 0.462729
0.103726 -0.256632 0.157427
0.120031 -0.237514 -0.015178
0.024885 -0.066708 -0.337913
0.099160 -0.020636 -0.287167
0.166282 -0.092091 -0.097450
-0.136681 0.241628 0.266919
0.128044 0.093610 0.470882
0.023720 -0.125946 -0.381431
0.250390 0.100482 0.029591
-0.028504 -0.118807 -0.361962
-0.241554 0.065898 0.029105
-0.038840 -0.131822 -0.433010
0.041854 0.301124 0.181162
0.198068 -0.062174 -0.110605
0.029630 0.182085 0.413435
0.068135 0.235988 -0.048176
0.226887 -0.040633 -0.053672
-0.192179 -0.247396 0.196303
-0.125967 0.065605 -0.204994
0.127310 0.026597 -0.180957
-0.107396 -0.069316 -0.378539
0.071184 0.029272 -0.293838
-0.091871 -0.166626 0.420193
0.273354 0.108921 0.182113
-0.061744 0.104182 -0.401650
0.000721 0.011697 0.498702
-0.265652 -0.158296 0.111963
-0.017762 0.274087 0.185547
-0.168976 -0.137855 -0.030567
0.120266 -0.249438 0.155854
-0.115764 0.262940 0.246541
-0.048329 -0.137376 -0.166996
-0.069255 -0.002781 -0.300656
0.005449 -0.092067 -0.345925
-0.076492 -0.058309 -0.328012
-0.022973 -0.109856 -0.278423
-0.067290 -0.174311 -0.149713
0.234682 0.154309 0.053040
0.259633 0.161842 0.233899
0.035375 -0.120826 -0.388810
-0.259462 0.039038 0.046057
0.002314 -0.076095 0.493326
0.120121 0.182018 -0.073539
0.264135 -0.075410 0.078595
0.066745 -0.090444 -0.500000
0.179053 -0.206542 0.034796
0.155832 -0.229635 0.195388
0.020041 -0.220786 -0.096974
-0.275225 0.026754 0.213279
-0.286018 -0.000286 0.271981
-0.180286 0.118744 -0.062432
-0.251121 -0.010959 0.055189
-0.086289 -0.027300 -0.307254
-0.130345 -0.231116 -0.002635
0.214001 -0.219758 0.201426
0.029206 -0.123214 -0.386745
-0.188832 -0.126307 0.357019
-0.105678 0.264528 0.045303
-0.028823 -0.037752 0.486180
0.248659 -0.009264 0.357047
-0.232283 0.065176 -0.012992
0.056079 -0.087529 -0.317318
0.070609 -0.195474 0.387461
-0.026847 -0.095880 -0.323624
-0.037356 0.021014 -0.500000
0.109051 -0.033889 -0.283687
0.130436 -0.015179 -0.426437
-0.003298 -0.303175 0.078931
0.063745 0.107123 -0.416892
-0.037884 -0.104074 -0.301572
-0.104263 -0.084620 -0.500000
0.050687 0.201925 0.417531
-0.107231 0.078670 -0.437436
0.103941 0.269248 0.108594
0.244713 0.126037 0.016638
0.128056 -0.060595 -0.461638
-0.264823 -0.089231 0.069182
-0.072940 -0.262239 0.250681
0.010809 -0.302162 0.112712
0.262988 0.152637 0.243600
-0.065037 -0.288989 0.063391
0.097986 -0.067642 0.450244
0.220533 0.040106 -0.023422
0.038034 0.066340 0.472622
-0.223784 0.105377 0.004730
0.119921 0.245542 0.098626
0.123694 -0.150977 0.415366
-0.138596 0.002280 -0.448027
-0.274629 -0.101747 0.115833
-0.068512 0.156435 -0.106978
0.297799 -0.062857 0.119122
-0.164373 0.180982 0.320455
0.114298 0.095196 0.473334
0.255754 -0.029847 0.375057
0.128408 0.231866 0.100401
0.092113 0.178594 -0.051101
-0.019624 -0.014342 -0.500000
-0.040875 0.091184 -0.500000
-0.104835 0.275469 0.239034
0.134478 0.080713 0.434037
0.104069 0.080336 -0.437221
0.178234 0.201209 0.275145
-0.274128 0.085562 0.212737
-0.086721 0.083826 -0.391558
-0.028180 -0.064088 -0.317552
-0.227977 0.146522 0.148284
-0.069008 0.175694 -0.132525
0.212991 -0.167288 0.246650
-0.055661 -0.185563 -0.139191
-0.243774 -0.111985 0.316572
0.000727 0.001441 0.460828
-0.104014 0.142382 -0.086001
0.217372 0.000823 0.367773
0.144892 0.225862 0.309363
0.072523 -0.239068 -0.032995
-0.118782 0.030975 -0.390516
0.208206 -0.186462 0.251644
0.226157 -0.129307 0.077393
-0.197704 0.224735 0.090406
0.237821 -0.091000 0.298572
0.277507 0.097418 0.174693
0.237992 0.129828 0.049191
-0.100274 -0.027948 -0.500000
0.112458 0.090989 0.478538
-0.278859 -0.052293 0.310470
-0.079276 0.058834 -0.500000
-0.248917 -0.131768 0.094830
0.091008 0.046198 -0.315712
-0.194320 0.056842 0.445449
-0.052130 -0.118975 -0.375079
0.040073 -0.226552 0.372867
-0.230123 -0.089512 0.347755
-0.168241 0.080273 0.415382
-0.206759 0.125811 0.394059
-0.098892 0.041832 -0.239519
-0.013763 -0.209702 -0.116336
0.113513 0.240944 0.123798
-0.061824 0.061770 -0.246225
0.100328 0.064047 -0.500000
0.292212 0.048142 0.188879
-0.029223 0.088126 -0.500000
-0.002592 -0.097856 0.489459
0.062212 -0.098735 -0.200747
0.181022 0.175246 0.061402
-0.045093 0.060375 -0.270482
-0.282753 -0.074184 0.310164
-0.224336 -0.168604 0.123835
0.235713 0.014234 0.374021
0.205266 -0.237846 0.212044
0.250028 -0.004074 0.383374
-0.305107 0.056472 0.220500
0.097464 -0.039673 0.461147
0.064340 0.228855 0.368208
-0.185458 -0.154211 0.404692
0.132160 -0.051313 -0.461425
0.034187 -0.125727 -0.410336
-0.264587 0.024495 0.053926
0.309644 -0.000449 0.137571
-0.196818 0.085362 0.431436
0.188393 -0.185073 0.050227
0.219326 -0.167963 0.025332
0.096387 -0.111714 -0.154041
-0.205256 0.110976 -0.005462
-0.028538 0.127419 0.450669
0.267105 -0.065642 0.319539
-0.024712 0.133869 0.467062
-0.177202 -0.215190 0.170087
0.111366 -0.194163 0.425699
-0.069468 -0.122317 -0.444874
-0.064217 -0.141471 -0.192788
0.091049 -0.292922 0.120553
0.132615 0.002208 -0.208171
-0.024823 -0.264371 0.282890
-0.054145 0.272064 0.025569
-0.193727 0.109308 0.374160
0.127459 0.146337 -0.126852
-0.158663 -0.022530 -0.148958
0.014531 -0.199976 -0.108415
-0.242990 0.078557 -0.020376
0.019384 0.127397 -0.431283
0.215452 0.039251 0.391511
-0.187188 -0.124301 -0.031508
-0.092049 -0.035448 0.484961
-0.012818 -0.186403 -0.131825
0.134605 -0.004261 -0.440750
-0.022378 0.000501 -0.360625
0.039833 -0.131816 -0.222692
0.006610 -0.119946 -0.279581
-0.063563 -0.101052 -0.500000
-0.049737 -0.002886 -0.360625
0.062643 0.292106 0.136583
-0.078527 -0.046270 -0.280906
0.120332 0.071612 -0.484824
-0.026804 -0.131891 -0.421454
-0.241306 -0.158427 0.108240
-0.168433 -0.132109 -0.040372
-0.055781 -0.274390 0.299411
0.133625 -0.103711 -0.171638
-0.201669 0.055811 0.417359
-0.112640 -0.178326 0.427023
0.127867 0.057010 -0.474708
-0.171563 -0.125214 -0.065189
0.252749 -0.080826 0.346999
-0.224937 0.123873 -0.016502
0.089792 -0.057568 -0.360056
0.305184 0.057026 0.175621
-0.081579 0.113741 -0.473074
0.037669 -0.294199 0.089553
-0.105390 0.070120 -0.253905
-0.123871 -0.146656 0.404187
0.087252 -0.018436 -0.338968
-0.066706 -0.031689 -0.355818
-0.254499 -0.039354 0.056287
0.225076 -0.040938 -0.081686
0.084207 -0.104606 -0.213069
-0.120297 0.164054 -0.073386
-0.161819 0.041170 0.426235
0.105222 0.083901 0.445456
0.279736 -0.081364 0.077064
-0.134237 0.240071 0.050455
0.075078 -0.124107 -0.471113
0.052618 -0.108568 -0.500000
-0.168282 0.224600 0.301572
0.004745 -0.082966 -0.269666
0.041363 -0.036730 -0.500000
0.195969 0.219045 0.072533
0.097935 -0.103572 -0.200307
-0.250027 -0.006595 0.040876
0.071730 0.095809 -0.386376
0.184279 0.198749 0.269910
0.267397 -0.036481 0.122605
0.121279 -0.202640 0.005020
0.278862 -0.014930 0.113520
-0.056671 -0.164128 0.441058
0.127536 0.073371 0.437342
0.052686 -0.281650 0.098255
0.187446 -0.252995 0.196507
-0.022695 0.044713 -0.360625
0.249407 -0.128810 0.261477
-0.082990 -0.133086 -0.205766
-0.091328 0.081472 -0.262301
0.226410 0.041824 -0.034024
-0.218758 0.195677 0.100166
-0.143013 0.225274 0.060149
0.051453 -0.260081 0.340809
0.118535 0.237329 0.110064
0.207079 -0.070275 -0.083855
-0.141315 0.245785 0.270092
0.171116 0.187044 0.310523
0.258927 0.103241 0.223437
0.028641 -0.003151 0.496488
0.165342 0.226259 0.302396
0.045468 0.012243 0.480795
-0.131175 0.235762 0.267192
0.072485 -0.135467 -0.201084
-0.162253 0.035494 -0.166969
-0.091484 -0.077707 -0.360741
-0.067406 -0.127563 -0.456952
-0.052905 0.056111 -0.271831
0.243590 -0.115509 0.053952
-0.095216 -0.011548 -0.500000
-0.067010 -0.101496 -0.206936
-0.079605 -0.112182 -0.432160
0.169369 0.067475 0.459425
0.197954 -0.020070 -0.072195
0.234149 -0.102934 0.313768
-0.201279 -0.091828 -0.095997
0.189537 -0.069729 -0.119005
0.169192 -0.060630 -0.119987
-0.169020 0.043544 0.418383
0.232339 -0.075708 0.330985
-0.258964 -0.024972 0.073298
-0.050869 -0.266322 0.263267
0.122652 -0.014604 -0.399631
-0.112602 -0.032357 -0.271657
-0.125229 0.230286 0.087715
0.053184 0.056218 -0.359914
-0.192281 -0.056542 -0.123542
-0.105073 -0.009764 -0.312322
0.062073 0.033375 -0.500000
-0.253133 -0.143728 0.141782
-0.136673 -0.244937 0.011765
-0.117736 0.246396 0.254253
0.145814 0.265327 0.114313
-0.103604 0.037237 -0.208459
-0.109009 0.057010 -0.197274
0.262739 -0.050357 0.358967
-0.004776 -0.129043 -0.370604
0.006788 0.052558 -0.356843
-0.174916 0.140072 -0.078159
-0.072611 0.002970 -0.293995
0.107620 -0.208292 0.400997
-0.040306 0.161116 0.432361
0.118417 0.034684 -0.404050
0.063182 0.103558 -0.369885
-0.263484 0.105865 0.156423
0.017826 0.113721 -0.500000
-0.250566 -0.158920 0.148959
-0.260069 -0.174066 0.134779
0.095505 0.055447 0.469611
0.153643 -0.069142 -0.103936
0.185438 -0.165174 0.043997
-0.120407 -0.212285 0.006835
0.125465 -0.069642 -0.493130
0.196318 0.040419 0.439430
0.184911 0.230239 0.077241
-0.238393 -0.162332 0.153641
-0.115092 -0.056158 -0.372727
0.004350 -0.086858 -0.500000
0.115389 -0.102422 -0.135859
0.040147 -0.108118 -0.500000
0.131884 -0.223712 0.012087
0.137740 -0.030350 -0.463758
0.154318 0.214043 0.105055
0.035541 -0.141794 -0.489589
0.040944 -0.094613 -0.243669
-0.130557 -0.247481 0.203420
-0.032145 -0.006121 0.498211
-0.170481 0.018934 -0.144886
-0.270627 -0.096615 0.115116
-0.246788 -0.109768 0.355403
-0.021454 -0.256704 0.309743
-0.096635 0.140365 -0.123184
-0.277427 0.028618 0.044530
0.105622 0.157499 -0.113973
-0.260779 0.122565 0.189247
0.108104 0.086921 -0.468002
-0.207857 0.221708 0.107274
0.101494 -0.157404 0.408491
-0.005303 -0.116000 0.480221
0.091778 0.072502 0.488798
0.125287 0.122511 -0.096788
0.067375 -0.123651 -0.183117
-0.199133 0.056392 0.440695
0.048950 -0.032775 0.460500
-0.073339 0.272093 0.216022
0.051093 -0.224913 0.351943
-0.109132 0.172267 -0.115002
0.223837 -0.013722 -0.075554
-0.082223 -0.070863 -0.338529
0.013441 -0.218611 -0.061873
-0.290485 -0.045364 0.259388
0.103046 -0.099182 -0.150771
0.116278 0.061819 -0.164328
-0.045281 -0.170556 -0.161574
0.046802 0.119427 -0.240324
-0.089438 0.081357 -0.500000
0.061658 0.201312 0.371078
-0.097678 0.066406 -0.211569
0.108298 -0.110334 0.435802
-0.040338 0.112605 0.449066
0.183801 0.073219 0.420741
-0.091425 -0.258966 0.021753
-0.171100 0.153574 0.344153
-0.125909 0.032302 -0.220294
0.262618 -0.091397 0.068426
-0.306703 0.058039 0.211607
0.108906 0.050870 -0.386962
0.043692 -0.264938 0.334357
0.100154 -0.001441 -0.222621
0.131978 0.162961 -0.096594
-0.029343 0.130651 -0.186757
-0.227501 0.076572 0.016976
0.108545 0.200134 -0.063538
0.247509 -0.040047 0.377159
-0.159568 -0.210159 -0.019646
-0.045636 -0.142654 -0.144446
-0.045551 0.147533 0.476183
0.131461 0.031595 -0.175785
-0.018616 -0.105590 0.453283
-0.088204 -0.276462 0.039562
0.098934 0.161670 -0.065579
0.225639 0.081874 -0.008884
0.084609 0.078156 0.451205
0.029667 0.081224 -0.245021
0.020019 -0.114688 -0.277916
0.131343 0.059479 0.461246
0.029530 0.218841 0.390100
0.116680 -0.094943 0.438798
0.090263 -0.182314 0.390885
0.175642 -0.068487 -0.079408
0.124038 0.164761 -0.075026
0.127073 -0.173414 0.423215
0.296866 -0.069473 0.098162
-0.091548 -0.237158 0.023363
0.114834 0.204005 0.332398
-0.255756 -0.089454 0.343701
-0.105339 -0.015832 -0.272717
-0.096761 0.057324 -0.207909
-0.104651 -0.227491 0.015640
0.112418 -0.226629 0.001533
0.191009 -0.190862 0.007044
-0.286953 -0.067970 0.284207
-0.040738 -0.286220 0.051678
0.097012 -0.056094 -0.288550
0.007312 0.042653 0.474225
-0.077568 -0.056438 -0.267132
0.014997 -0.218386 -0.100863
-0.071295 -0.297904 0.275418
-0.073296 -0.004282 -0.289367
0.112240 -0.038952 -0.267280
0.124439 -0.282474 0.173161
0.076579 0.206142 0.358167
0.247672 -0.059607 0.363477
-0.156555 -0.144209 0.380862
0.090212 -0.261635 0.134249
-0.025939 0.090070 -0.349494
-0.064498 -0.077719 -0.314987
0.067365 0.095401 -0.364308
0.099390 0.096016 0.460030
-0.067523 -0.269077 0.286741
0.041788 -0.139266 -0.469702
-0.101367 0.013740 -0.302938
-0.155212 -0.176219 0.000974
-0.292121 -0.061415 0.286969
0.192696 -0.065223 -0.115524
0.008673 0.009250 0.460594
0.295974 -0.020371 0.150809
0.085606 0.085301 -0.367267
0.122828 0.045866 -0.166573
0.207414 -0.223883 0.194925
0.069712 0.225247 -0.061477
-0.118459 -0.045555 -0.379756
0.090221 0.276438 0.117126
-0.026019 -0.066977 -0.302454
-0.002255 0.136752 -0.220160
-0.070850 0.237041 0.054547
-0.263389 0.030522 0.050561
0.146784 -0.087295 -0.153409
-0.132444 -0.059645 -0.479583
0.093142 0.234754 0.377224
-0.111114 0.077013 -0.444888
-0.034648 -0.259248 0.294446
0.006849 -0.145174 -0.464566
-0.078228 -0.108190 -0.175758
-0.105048 -0.032044 -0.255610
0.171709 -0.231115 0.216274
0.109769 -0.276586 0.172500
0.036554 -0.058337 -0.336385
-0.003021 -0.255731 0.337992
0.167225 -0.236120 0.212635
0.117292 0.146912 -0.126127
-0.014720 0.028975 0.461604
-0.029156 0.079837 -0.346129
-0.061115 0.139267 -0.154394
-0.279070 -0.043460 0.305216
0.223042 0.067509 -0.011397
-0.186895 -0.173524 -0.043081
0.033758 0.119970 -0.251774
0.081055 0.113404 -0.482217
-0.036299 -0.004099 0.462349
0.190202 -0.160208 0.029076
0.043755 -0.277365 0.132697
0.208043 0.135604 0.025256
-0.090066 0.002406 -0.282497
0.233128 0.087010 -0.011113
-0.197238 -0.030530 -0.106702
0.065733 0.233138 0.374362
0.082989 -0.120292 -0.476395
0.110286 0.061119 0.473544
-0.065977 -0.024878 0.459446
0.180374 0.219632 0.289445
-0.055354 0.136489 -0.155187
-0.065983 -0.108519 -0.394951
0.012482 0.067343 -0.500000
0.103084 0.062663 0.480006
0.170878 -0.191103 0.040421
-0.286623 -0.016361 0.283612
-0.139511 -0.137159 0.420564
-0.166907 -0.033821 -0.102745
-0.184818 0.194944 0.324694
0.261245 -0.137320 0.297963
0.124639 -0.159091 0.414033
0.185233 0.041940 0.442870
-0.243887 -0.119924 0.327164
-0.137056 0.252796 0.056519
-0.203114 0.118512 0.374930
-0.183853 0.115055 -0.024788
-0.018920 -0.131443 0.481803
-0.080378 0.231953 0.042530
0.115054 -0.202316 -0.026536
0.116694 -0.186893 0.429545
-0.169660 -0.079350 -0.088004
-0.228062 0.120425 -0.030135
0.147290 0.240246 0.080778
-0.185746 0.189881 0.358728
-0.039471 0.122798 -0.430247
-0.277965 0.035720 0.020805
0.173488 0.191578 0.281231
0.212676 0.196778 0.059761
0.026574 -0.048854 -0.500000
0.096917 -0.097492 -0.192364
-0.177140 -0.018817 -0.155620
-0.206100 -0.136409 -0.046322
0.141837 0.128560 -0.105947
-0.062444 0.034509 -0.326617
-0.049752 -0.125729 -0.424720
0.209152 -0.063324 -0.071189
-0.023115 -0.077277 -0.353110
-0.013219 0.090544 -0.500000
0.150360 0.043697 -0.196395
-0.110322 -0.060742 -0.394625
0.011473 0.247175 0.018344
0.090113 -0.040580 0.491921
0.042362 -0.249870 0.330644
0.137964 0.061595 0.437578
0.120504 0.062887 -0.154715
-0.285240 -0.027699 0.074892
0.093462 -0.285452 0.119037
0.010983 0.145827 -0.213933
0.218442 -0.165174 0.236562
-0.075275 0.071282 -0.285329
0.264326 0.079390 0.174349
-0.124194 0.068614 -0.474001
0.062298 0.124067 -0.485473
-0.147082 0.025029 0.449241
-0.170254 0.122756 0.379127
-0.201010 0.101178 0.383164
-0.270513 0.031723 0.220954
0.259789 0.059462 -0.004144
-0.038743 -0.112799 0.484722
-0.064085 -0.087464 -0.347963
0.174833 -0.055471 -0.079784
-0.240160 0.129852 0.150073
-0.006919 0.125563 -0.500000
0.110288 0.178762 -0.101214
-0.151205 0.126054 -0.061284
-0.057819 -0.044990 -0.339393
-0.112649 0.052328 -0.404638
-0.215643 0.079628 -0.000307
0.004149 0.037013 -0.500000
0.262559 -0.053837 0.113863
-0.057790 0.068100 -0.348845
-0.007404 -0.081900 -0.305777
-0.048311 -0.179492 -0.154973
0.035668 -0.221706 -0.089314
-0.034060 -0.299372 0.077813
-0.171565 0.213771 0.304835
-0.215257 -0.180611 0.163750
-0.104273 -0.084808 -0.425528
-0.215238 0.132395 -0.024007
0.102451 -0.215386 0.397812
-0.199609 -0.121476 0.347405
0.206587 -0.003741 -0.049670
0.137055 -0.079501 -0.123162
-0.137296 -0.027965 -0.450452
0.084153 0.203278 -0.034133
-0.078214 0.249118 0.022215
0.153174 0.228285 0.309394
-0.071067 0.053328 -0.243229
-0.073654 -0.151670 0.470589
-0.121821 0.038783 -0.178363
-0.036252 0.020308 0.491354
0.115552 0.135570 -0.085887
-0.275210 0.048018 0.196804
0.084493 -0.034302 -0.253591
0.106599 0.067728 0.482381
0.234871 -0.168935 0.044374
-0.059605 -0.131399 -0.500000
0.132778 0.228069 0.111864
-0.097974 0.025419 -0.313624
-0.015839 -0.127293 -0.500000
0.204063 -0.017982 -0.077048
0.072276 -0.017069 0.470221
-0.201482 0.105263 0.417688
0.171563 -0.078871 -0.085928
0.032227 -0.110548 -0.355343
-0.208441 0.092235 0.402266
0.008612 -0.042915 0.495437
0.184360 -0.191551 0.002965
-0.071754 -0.012757 -0.306116
-0.032373 0.139950 -0.189744
-0.103040 -0.262853 0.022876
0.127454 0.235709 0.350096
-0.007911 0.269372 0.198061
0.026212 0.185469 0.400992
-0.106013 -0.290872 0.254805
0.252341 -0.147509 0.073073
-0.120085 -0.007217 -0.500000
0.193348 0.190755 0.309233
-0.041776 -0.256713 0.071038
0.047762 -0.012968 -0.360625
0.258347 0.053115 0.000022
0.105157 -0.033475 -0.357225
-0.001125 -0.178010 -0.111168
-0.275946 -0.062422 0.097265
-0.197763 -0.204171 0.147653
-0.164673 0.053850 0.442638
0.020959 0.117753 -0.248692
-0.086181 -0.001028 0.483899
-0.158536 -0.190527 -0.030887
0.176606 -0.047051 -0.085118
-0.165838 0.232808 0.313244
-0.101937 0.267729 0.056912
0.120208 -0.126883 -0.169869
0.139421 -0.087788 -0.157920
0.133233 0.132870 -0.137288
0.040255 0.094933 -0.346597
0.050969 -0.046712 -0.305888
-0.030449 0.089446 -0.279558
-0.015070 -0.194040 -0.082585
-0.042142 -0.042059 -0.357563
-0.063630 0.253475 0.014527
0.112700 0.072166 -0.444716
0.051140 -0.078300 -0.304820
0.119998 0.227942 0.325799
0.114028 -0.156578 0.452524
-0.089151 0.077645 -0.269686
0.010838 0.090032 -0.315759
0.062265 -0.201612 -0.046589
0.063919 -0.035710 0.496589
0.134860 -0.090201 -0.117896
-0.201433 0.066686 0.406810
0.126791 0.113289 -0.103862
0.020887 -0.209838 -0.102798
-0.070597 0.051082 -0.252958
-0.020082 -0.064380 -0.500000
0.220908 0.149198 0.241066
-0.014156 -0.105760 -0.307473
0.112580 0.099965 -0.133656
-0.167133 0.137027 -0.081785
0.253148 0.107310 0.020862
-0.204227 -0.137174 0.393019
0.151694 0.049707 -0.174736
-0.051462 -0.142718 -0.178036
-0.104205 0.095258 -0.477825
0.060599 -0.219040 -0.028469
-0.045580 -0.263346 0.296687
0.102371 -0.120053 0.438523
0.020191 0.016462 -0.360625
-0.003891 0.094896 -0.308822
0.176797 0.212786 0.060193
-0.078214 -0.038286 0.479457
-0.186412 0.170716 0.376359
-0.018721 -0.290334 0.285485
-0.060454 -0.117954 -0.191373
-0.274569 -0.034831 0.252821
0.288182 0.084619 0.168305
-0.169853 0.150672 -0.080213
0.022898 -0.102569 -0.339335
-0.035603 0.116953 -0.374020
-0.113846 0.048534 -0.379047
0.235550 0.037489 0.003918
-0.187118 0.155458 0.388650
-0.218101 -0.176320 0.130302
