0.245075 0.169699 0.228954
-0.052414 0.028166 -0.354547
-0.255630 -0.010475 0.063813
-0.157754 -0.184848 -0.031377
-0.279988 0.050146 0.192306
-0.109817 -0.063180 -0.263568
-0.028878 -0.144883 0.452028
-0.098167 -0.122297 -0.184366
0.267364 -0.133254 0.285766
0.062034 0.214800 -0.063917
0.185472 0.191642 0.091877
0.107331 -0.071665 -0.500000
-0.242764 -0.069427 0.312606
0.011039 -0.244521 0.328980
0.081307 0.026691 -0.298449
-0.011391 0.008675 0.499727
0.116334 -0.079407 -0.453343
0.093977 0.076724 -0.370101
-0.169778 -0.165643 0.409337
0.249606 -0.179585 0.259070
0.195279 -0.200250 0.014968
-0.023679 -0.209500 -0.108213
0.162646 -0.232282 0.171872
0.149887 0.034143 -0.198806
0.234116 -0.150374 0.035924
-0.264534 -0.022183 0.034766
-0.011863 0.287455 0.174717
0.215523 0.107079 0.013321
0.228074 0.164040 0.035480
-0.009649 -0.125811 0.464862
0.108589 0.032540 -0.209221
0.030241 0.078972 -0.251690
0.227374 0.033403 -0.041053
0.045676 0.083426 -0.500000
-0.139795 0.025669 -0.156032
0.141151 0.002687 -0.495173
-0.127806 0.051131 -0.450298
0.246796 -0.169226 0.238280
0.115444 -0.054574 -0.411218
-0.160818 -0.131332 0.406079
0.171549 0.192405 0.320566
0.175268 0.237997 0.079806
-0.032533 -0.128923 -0.416960
-0.194740 -0.210475 0.189196
-0.111138 0.037917 -0.500000
0.089593 -0.082851 0.468998
-0.197643 -0.243615 0.191299
-0.174037 0.014893 -0.171216
-0.077999 -0.298415 0.256677
-0.022495 -0.140628 0.456830
0.113901 0.050076 -0.196363
0.028793 -0.297060 0.126258
-0.209795 0.220242 0.109636
-0.113485 -0.216319 0.016345
-0.023837 -0.005436 0.461344
-0.166863 -0.040737 -0.133909
-0.020776 -0.123560 -0.500000
0.078044 0.047192 -0.343805
-0.001664 0.086204 -0.302520
-0.147212 0.254360 0.070564
0.128014 -0.170198 0.423415
0.289917 0.097904 0.180512
-0.107238 -0.140942 0.439860
-0.165609 0.022964 -0.184544
-0.057343 0.061292 0.470490
-0.247122 -0.092990 0.301769
-0.036028 0.057779 -0.360547
0.086762 -0.169488 0.424492
-0.169849 -0.077644 -0.085847
-0.174024 0.205362 0.308908
0.232462 0.072823 0.023625
0.091520 0.045320 -0.310999
-0.158156 0.163970 -0.064058
-0.062721 0.265425 0.216958
-0.292260 -0.060162 0.282748
0.234725 -0.031249 -0.067072
-0.258778 -0.058793 0.089626
0.245198 -0.186962 0.239486
0.277063 0.022683 0.136849
-0.082420 0.141633 -0.136684
0.136208 -0.077776 -0.133510
-0.185541 0.190308 0.111156
-0.004192 0.242096 -0.016971
-0.221997 -0.185720 0.127008
0.105946 0.268302 0.151397
-0.068772 0.280669 0.257675
-0.000322 -0.053729 0.497742
-0.003523 0.149915 -0.207381
0.179294 -0.254787 0.177293
0.153004 0.069209 -0.176333
0.004017 -0.295140 0.073449
-0.065717 0.092723 0.473919
0.117150 0.062040 0.451331
-0.065391 0.103376 -0.376999
-0.205979 -0.151164 0.378678
-0.060658 -0.290451 0.059824
0.046174 -0.258145 0.333257
-0.011793 0.190892 0.413037
-0.014407 -0.115175 -0.290456
-0.309812 0.029765 0.228125
-0.100283 -0.096662 -0.440075
0.115069 0.269729 0.145723
0.097511 0.007386 -0.239775
0.220803 0.046491 -0.018331
-0.051202 -0.292091 0.297680
-0.012482 0.194257 0.449647
-0.186065 -0.084912 -0.058434
-0.080489 0.112798 -0.462034
-0.096876 0.138823 -0.098090
-0.051123 0.043159 0.479760
-0.077969 0.168086 -0.103934
0.065602 -0.290273 0.103831
0.039296 -0.023858 -0.500000
-0.104953 -0.036728 0.472500
0.071801 0.074869 0.454418
0.031730 -0.002132 0.494979
-0.245838 -0.068561 0.300722
0.106115 -0.295034 0.152280
-0.235729 0.181667 0.112803
0.045824 -0.268184 0.353344
0.168800 -0.103341 -0.118647
-0.078148 -0.000658 -0.338927
0.226945 -0.032508 0.347382
0.065096 0.266522 0.166348
0.098686 0.069995 -0.380450
0.197680 0.215336 0.293529
0.249634 -0.112348 0.274062
0.102048 0.073611 -0.418126
-0.004148 -0.085381 -0.263839
0.096434 -0.163201 0.440981
-0.085751 0.269555 0.040637
0.060945 -0.305889 0.127985
0.071313 -0.068687 -0.335990
0.229196 0.042695 0.003921
-0.046518 -0.125391 0.448073
-0.118360 -0.222052 0.038446
0.232617 -0.116848 0.079757
-0.045344 0.111007 -0.395284
0.016536 -0.284820 0.078188
0.232755 -0.066244 0.325904
0.209684 0.002029 0.408555
0.243234 0.116012 0.217479
0.309780 0.012702 0.148259
-0.248294 0.001991 0.038181
-0.207655 -0.124499 -0.050864
-0.224496 0.151470 0.145132
-0.293926 -0.055339 0.290845
-0.115726 0.056766 -0.420328
-0.283212 -0.044267 0.303440
0.129201 -0.081805 -0.138140
0.235385 -0.162056 0.234670
-0.168952 -0.134697 0.373990
-0.094810 0.268710 0.048340
-0.066444 0.113780 -0.438001
-0.020614 0.021289 0.498954
-0.108376 -0.290019 0.253369
0.116283 0.074922 -0.170922
0.079993 -0.020646 0.473089
0.102780 0.012787 -0.216693
0.055324 0.031231 0.473214
-0.021511 0.118439 -0.381257
-0.156373 0.211965 0.076752
-0.053939 0.067196 -0.252663
-0.112578 0.031015 -0.197768
0.068699 -0.241114 -0.048521
-0.070223 0.082042 -0.288554
-0.222172 -0.169855 0.126636
-0.172260 0.026308 0.423077
-0.062508 -0.099201 -0.500000
0.008639 -0.093547 -0.291652
-0.057187 0.126630 0.480335
0.096471 -0.231912 -0.048742
-0.253007 0.087450 -0.010690
-0.013397 -0.033107 0.463757
-0.101534 0.252711 0.285849
-0.058726 0.100683 0.486061
-0.094974 -0.271127 0.269200
-0.039602 0.084540 -0.318597
0.253764 -0.074595 0.302842
0.067905 -0.224367 -0.069793
-0.095390 0.262103 0.034936
-0.079871 0.263842 0.026797
-0.008351 0.033323 -0.500000
0.079524 0.095429 -0.414018
0.186835 0.220642 0.098532
0.040301 0.021898 -0.500000
-0.185254 0.097526 0.381338
-0.057329 0.065956 -0.500000
-0.183171 0.170920 0.330755
-0.160557 -0.006071 0.441857
-0.042701 0.303589 0.221789
0.051682 0.027682 -0.357293
-0.263309 -0.075354 0.332052
0.140698 -0.022350 -0.489056
-0.119887 0.036496 -0.405226
0.017284 -0.028472 0.494285
0.109202 0.121992 -0.104504
0.122890 0.065324 -0.465260
0.003714 -0.100065 0.474258
-0.196543 -0.026873 -0.129715
-0.236696 -0.207704 0.151931
0.097561 0.172215 -0.056676
-0.173631 0.242448 0.095671
-0.234356 -0.133433 0.351643
-0.200398 0.049326 0.421895
0.100055 -0.090647 -0.430779
0.261382 -0.130493 0.268623
0.200006 0.200964 0.262762
0.004714 0.007291 0.499675
-0.064642 0.101089 0.462151
0.265910 0.100341 0.223272
0.293903 -0.038469 0.100456
0.087392 0.188620 -0.088860
-0.098034 -0.241770 0.015714
-0.176865 -0.216126 0.190826
-0.150975 -0.177047 -0.022542
0.226871 -0.002650 -0.068065
0.123120 0.054717 -0.204307
0.049590 0.041424 0.495807
-0.278167 -0.076279 0.319349
-0.284711 -0.053151 0.053533
0.000935 -0.104968 -0.298373
-0.060288 -0.263939 0.079355
0.142401 -0.248204 0.194120
0.019475 -0.014881 -0.500000
-0.008097 -0.034117 -0.360625
0.063945 -0.119912 -0.431442
0.216092 -0.152517 0.070515
-0.114673 0.277353 0.256940
0.078992 0.284313 0.125218
-0.082720 0.053959 -0.266556
0.108468 -0.122804 0.465534
0.256694 0.026281 -0.022345
-0.162402 0.182751 0.319326
-0.034019 -0.197746 -0.131924
0.002874 0.209785 0.432445
-0.003318 0.208897 0.420126
-0.057238 0.033287 -0.342943
0.078784 -0.121317 -0.171824
-0.092628 -0.125652 -0.210728
-0.135800 0.037817 -0.459542
-0.164851 0.123136 -0.068707
-0.105863 0.047606 -0.500000
-0.276712 0.126221 0.187060
0.309523 0.005312 0.139550
-0.062273 -0.132114 -0.467828
0.005592 0.072243 -0.500000
-0.155029 -0.258094 0.183504
-0.015711 -0.109976 0.491149
-0.282226 -0.069105 0.279630
0.044672 -0.130212 -0.435934
0.047292 0.061405 -0.356193
0.120114 -0.148095 0.457214
0.250219 -0.107159 0.327194
0.091995 -0.033440 0.486035
-0.188083 0.140139 0.352673
-0.033222 -0.091634 -0.334438
-0.121450 0.041216 -0.416603
-0.197841 0.136257 0.360078
0.008691 -0.291293 0.117306
0.026304 0.117774 -0.376141
-0.029934 0.027652 -0.360625
0.006458 -0.087977 0.482936
0.028700 0.057965 -0.353174
0.011613 0.179839 0.408942
-0.290585 0.095809 0.171614
0.168255 0.059559 0.457655
0.078048 -0.106698 -0.500000
-0.192577 0.048257 0.412939
-0.193983 -0.236534 0.199593
-0.031148 -0.125207 -0.403495
-0.093198 -0.002224 -0.345374
-0.167831 -0.138570 -0.052487
0.063566 0.194947 -0.042446
-0.007347 0.155286 -0.197832
-0.154644 0.149444 -0.092603
0.022781 -0.116214 -0.224221
0.187186 0.216619 0.311620
0.113616 -0.033280 -0.249233
0.132665 -0.281983 0.173328
-0.301933 -0.011830 0.237455
-0.198509 0.129660 -0.016648
0.111620 0.056573 -0.500000
0.167283 -0.205346 -0.007769
-0.254098 0.014921 0.016884
0.081521 -0.016712 -0.275404
0.210515 0.142338 0.023446
-0.244674 -0.076347 0.335330
0.139390 0.068234 -0.143002
-0.296103 0.038575 0.243451
0.066236 -0.035459 -0.280487
0.008730 -0.126749 -0.384943
0.055974 0.073182 -0.249304
0.087082 -0.130734 -0.175907
-0.205497 -0.110669 0.345958
0.100631 0.005350 -0.331060
-0.197063 -0.166521 -0.026916
0.049761 0.285180 0.184061
-0.268934 -0.020334 0.076457
-0.042553 0.294852 0.195388
0.085089 0.225420 -0.041925
0.269793 -0.052452 0.093328
-0.098647 0.002068 -0.285165
-0.260698 0.167197 0.147771
0.052019 -0.136065 -0.497664
-0.063025 -0.113648 -0.408218
-0.017696 -0.058008 0.463866
-0.181352 -0.181488 -0.038845
0.026836 0.125605 -0.500000
-0.257485 0.162409 0.163027
-0.046736 -0.097121 -0.321987
0.041046 -0.010038 -0.500000
0.094608 0.035611 -0.329512
-0.208612 -0.090635 -0.068347
0.299694 0.016749 0.130515
0.005096 0.056764 -0.500000
-0.000440 -0.267476 0.091774
-0.135337 0.008929 -0.173729
-0.182368 -0.128477 0.362781
-0.233074 -0.164490 0.114566
-0.074128 0.270794 0.047851
0.063362 -0.119508 -0.185602
0.194317 -0.247341 0.198489
0.010701 0.274945 0.167197
0.115284 -0.292288 0.145454
0.014725 0.102416 -0.244256
-0.164912 0.153936 -0.045618
0.002321 0.145316 -0.172055
0.088430 -0.025692 -0.245836
0.064718 -0.042242 0.495080
-0.127935 -0.008575 -0.411568
-0.121533 0.018925 -0.392128
0.134945 0.037669 -0.467372
0.050631 0.068976 -0.351920
-0.004940 0.134236 -0.448800
0.079799 0.290717 0.162165
0.278786 -0.018583 0.111274
0.068810 0.051361 -0.352366
0.296008 0.075591 0.196921
0.104496 0.157983 -0.068196
0.077807 0.024886 -0.500000
0.009346 0.184286 0.445188
0.138988 -0.117238 -0.160964
0.005739 0.120855 -0.500000
0.099369 0.097510 -0.475253
-0.018708 0.306337 0.193466
0.184540 -0.041844 -0.097077
-0.063639 -0.000884 0.488237
-0.022632 -0.117808 0.490020
-0.258628 -0.111207 0.123081
-0.020855 0.047471 0.461726
0.144540 -0.279275 0.173818
-0.140625 0.248466 0.308690
-0.062140 0.019502 -0.332649
0.013249 0.098803 -0.235978
0.088065 0.052721 0.474490
0.012652 0.081874 -0.500000
-0.076712 0.094902 -0.402031
-0.153433 0.024644 0.435703
-0.099431 0.069148 -0.212605
0.227970 0.011371 0.412901
0.076529 -0.216614 -0.063955
-0.059595 -0.142143 -0.187588
-0.283321 0.009898 0.263234
-0.002947 0.121324 -0.372569
0.085690 -0.060429 -0.278863
0.056515 -0.230477 0.394467
0.027475 -0.192707 -0.086731
-0.035133 -0.094931 -0.282786
0.118001 -0.006683 -0.214204
0.298001 0.040409 0.143297
0.253849 -0.157644 0.249556
0.090963 -0.221470 0.407021
-0.045079 -0.029269 0.465034
-0.026782 -0.081406 -0.338031
-0.047155 -0.123443 -0.414603
0.226136 0.149199 0.228770
0.008848 -0.137203 -0.433760
0.167756 -0.055844 -0.092771
-0.096544 0.039937 -0.222821
-0.104028 -0.015181 -0.500000
0.077886 -0.195991 0.417705
-0.306594 0.034413 0.213703
-0.099275 -0.125825 -0.197600
0.217257 -0.165066 0.263182
-0.046783 -0.191674 -0.135850
-0.125394 -0.020778 -0.405551
0.096506 -0.263628 0.161036
0.053313 0.031357 -0.500000
0.254484 -0.039529 0.331380
0.056657 0.087953 -0.240218
0.092008 0.085020 -0.416120
-0.210469 -0.119740 0.383543
-0.173467 -0.061122 -0.118287
-0.055594 0.044908 -0.343082
-0.158335 0.037881 -0.190669
-0.238430 -0.146274 0.141347
0.019146 -0.042043 -0.500000
-0.111431 0.030573 -0.209210
0.077178 0.229733 0.392568
-0.067959 -0.046992 -0.500000
-0.117420 0.238411 0.085500
0.243620 0.132489 0.246825
0.103642 -0.025983 -0.351244
0.035341 -0.285407 0.131375
0.146317 0.262559 0.119856
0.183557 -0.201533 0.039744
-0.022120 0.072222 0.470178
-0.044878 -0.181899 -0.108435
-0.172756 0.009682 0.432820
-0.056238 -0.138881 0.439505
-0.181541 -0.051338 -0.082092
0.023047 0.220664 0.415666
-0.228735 0.079686 -0.024352
-0.018206 -0.055246 0.493126
-0.034730 0.104289 -0.500000
-0.046849 0.235295 0.019846
0.191435 0.174554 0.286009
0.258612 -0.111721 0.322553
0.168032 -0.263407 0.170912
0.134179 -0.114301 -0.169927
0.016723 0.061909 -0.339291
-0.012393 -0.267699 0.093963
0.241474 -0.195048 0.240465
0.001845 -0.278019 0.296267
0.028296 -0.041012 0.473662
-0.030099 0.189373 0.442822
0.104254 0.015420 -0.239866
-0.078568 0.174134 -0.112161
-0.052003 0.290151 0.243442
0.230528 -0.031106 -0.075562
0.036970 -0.034784 0.466309
-0.254740 -0.180889 0.128379
-0.017374 -0.086113 -0.357473
-0.167586 -0.162200 -0.006765
-0.025696 0.060329 -0.300883
0.103965 -0.112195 0.439915
-0.159739 0.000855 0.475763
-0.081519 -0.064376 -0.223593
-0.091044 -0.274968 0.056127
-0.222172 -0.194757 0.174551
-0.075682 0.088736 -0.272101
0.298333 0.017707 0.170789
-0.109975 0.078068 -0.443851
0.248044 -0.122781 0.093748
-0.156774 0.224072 0.107245
-0.084232 0.263043 0.062880
0.086802 0.293766 0.148510
0.110803 -0.043633 -0.362160
-0.052118 -0.181958 -0.151642
0.053503 -0.072422 -0.298383
-0.108292 -0.048397 -0.360634
0.106147 -0.168171 0.445080
0.306167 0.048869 0.171510
0.056400 0.060948 -0.500000
-0.172698 -0.136167 0.410726
-0.291071 -0.028470 0.053710
-0.224459 -0.137915 0.370138
-0.262982 -0.058646 0.055472
-0.058296 0.001208 -0.500000
-0.254025 -0.088688 0.103721
0.147928 0.117419 -0.136919
0.005143 0.016316 -0.500000
-0.267365 -0.037670 0.042378
-0.154019 -0.021123 -0.131307
0.018661 -0.298376 0.120443
-0.042328 0.012178 0.485618
0.133657 0.123300 -0.099500
-0.140531 0.257481 0.275775
0.252676 0.014544 -0.021324
-0.097231 0.042409 -0.213401
0.015854 0.041643 0.468046
-0.169456 0.223702 0.303433
0.157067 0.090174 0.455965
0.073773 0.044654 0.476919
-0.145062 0.232327 0.324206
0.269820 -0.088687 0.305807
0.083183 0.213473 -0.031207
0.095616 0.100632 -0.489143
0.099097 0.043003 -0.358519
-0.308593 0.010929 0.246233
0.252727 -0.142151 0.299253
0.054979 -0.213547 0.388875
0.039538 -0.256072 0.327229
0.130395 0.022803 -0.435558
0.131666 -0.100999 -0.121354
-0.091384 -0.294075 0.238367
-0.028016 0.043961 0.497995
-0.158616 -0.208043 0.020515
-0.191555 -0.031372 -0.098861
0.086058 -0.068789 -0.500000
0.094441 0.254317 0.146051
0.021186 -0.114820 -0.357226
0.016460 -0.138683 -0.441557
-0.212262 -0.101170 0.351339
0.295534 -0.075092 0.096896
0.286508 0.017176 0.172281
0.006765 0.141536 -0.220717
-0.178240 -0.132921 -0.069199
0.025674 -0.131101 -0.419049
0.165636 0.045058 0.441857
-0.054558 -0.284671 0.252711
0.006624 0.260001 -0.016525
-0.197899 0.126581 0.365642
-0.162322 0.026707 0.426733
0.025981 0.077302 -0.500000
0.122567 0.055063 -0.445226
0.125109 -0.013784 -0.225544
-0.045325 0.113283 0.487571
0.269061 -0.064266 0.339806
-0.224602 0.197782 0.140185
0.261315 0.120373 0.191147
0.033188 -0.092229 -0.247159
0.046781 -0.112365 -0.500000
-0.053742 -0.042966 -0.350065
-0.302759 -0.010043 0.268473
-0.003228 0.126552 -0.421985
-0.248699 0.143565 0.175290
-0.299977 0.085367 0.197651
-0.146425 -0.220338 0.029996
0.034373 0.043962 -0.500000
0.220701 0.053168 -0.011031
-0.007874 0.235684 -0.010221
0.077735 -0.097077 -0.197218
0.026451 -0.130561 -0.237750
0.166458 0.246952 0.107959
-0.091627 -0.009868 0.457182
-0.017514 0.009065 -0.500000
0.034136 0.058141 0.489363
-0.027999 0.174845 0.463043
-0.265588 -0.124317 0.129078
0.239093 0.176658 0.234840
-0.201250 -0.037227 -0.113576
-0.225273 0.093500 -0.034000
-0.004884 -0.184163 -0.084568
0.182353 -0.220134 0.184091
-0.107579 0.090103 -0.467427
0.084856 -0.109110 -0.440704
0.128780 0.054958 -0.486349
-0.290099 0.044996 0.194474
0.009676 0.213490 0.406687
0.059790 -0.133232 -0.473211
-0.071338 0.268627 0.027293
0.051083 0.112176 -0.234341
-0.293735 0.010847 0.263446
0.008938 0.302581 0.201541
0.049763 0.206831 -0.028331
-0.114729 -0.172438 0.412661
-0.082357 -0.058018 -0.229844
-0.285736 0.002391 0.222715
-0.177830 -0.152222 -0.012665
-0.126588 0.138397 -0.102660
0.048628 0.228796 -0.006164
0.007121 -0.061202 -0.500000
-0.203378 -0.123972 -0.072376
-0.039900 0.074163 -0.359016
0.111984 0.081570 -0.467951
-0.015147 -0.262039 0.329635
0.190307 -0.207258 0.021543
-0.010067 -0.082977 -0.500000
-0.035399 0.256732 0.000341
0.092679 0.234395 0.352478
-0.199803 0.164401 0.357106
-0.074235 -0.109195 -0.175084
0.207665 -0.031435 -0.045400
-0.011464 0.232067 -0.001006
0.028051 -0.301219 0.088335
0.053978 -0.290199 0.097531
-0.068255 -0.035744 0.468200
-0.115947 -0.046830 -0.387721
-0.140652 -0.013527 0.482768
-0.123207 0.225376 0.080924
0.173363 -0.255141 0.170268
-0.003735 0.120844 -0.221202
-0.013536 0.122021 -0.202820
0.262112 -0.080023 0.343298
-0.118996 -0.084330 -0.480484
0.231784 0.171939 0.277135
-0.032154 -0.042653 -0.359873
0.238350 -0.026561 -0.059410
0.256824 -0.165915 0.265325
0.037848 0.300218 0.153776
-0.001120 0.023453 -0.360625
-0.202025 0.191454 0.136008
-0.008904 0.299022 0.175874
-0.078766 -0.265961 0.071880
-0.001807 -0.286713 0.328459
0.183841 0.036138 0.438051
-0.135498 -0.050836 -0.470696
-0.046808 -0.002427 -0.360625
-0.050630 -0.262484 0.044219
0.232253 -0.072043 0.337694
-0.242715 -0.122785 0.355447
-0.251995 0.084021 0.016272
0.080664 -0.056710 -0.321247
-0.025178 0.257172 0.038185
-0.275122 0.113144 0.153758
-0.154063 -0.226979 -0.003865
0.097435 -0.280742 0.165290
-0.026041 0.098255 -0.312387
-0.139646 0.238713 0.053305
0.096884 -0.002871 -0.330678
-0.027236 -0.079400 0.465661
-0.160602 0.133648 -0.040516
0.266733 -0.052932 0.349699
-0.083918 -0.104092 -0.421490
-0.099606 0.039794 -0.233941
0.222447 0.138419 0.016362
0.008348 0.275472 0.201930
-0.050359 0.130124 -0.478595
0.273626 -0.004440 0.149561
-0.194933 0.099814 -0.025557
-0.176400 0.017412 -0.160110
0.272170 0.113420 0.229483
0.007769 0.099453 -0.329231
0.200265 -0.242453 0.204240
0.070898 -0.103271 -0.184001
-0.160884 -0.177313 0.004308
0.003496 0.123018 -0.180089
0.262395 -0.121190 0.311322
-0.032572 0.003026 -0.500000
-0.131931 0.241809 0.049296
0.034567 0.091005 -0.337291
-0.096803 -0.241599 0.056212
-0.018304 -0.011466 0.499615
-0.091460 -0.030183 0.490481
0.057627 0.085420 -0.500000
0.197488 0.023588 0.427754
0.034393 -0.022866 -0.360625
0.180214 -0.041754 -0.087860
-0.261803 0.077936 0.191331
0.033133 0.132995 -0.221049
-0.229924 0.188958 0.108309
-0.038381 -0.262544 0.082878
-0.195651 -0.130697 -0.030360
-0.053797 -0.289182 0.052753
-0.049991 -0.137730 -0.489108
0.243770 0.067111 0.021031
-0.162561 0.003144 0.435578
-0.008959 0.122285 -0.176267
0.288059 -0.035676 0.143773
0.134049 0.267087 0.101572
-0.061534 -0.057678 -0.500000
0.127161 -0.103998 0.473743
-0.092756 -0.258913 0.253782
0.099596 -0.041079 -0.358780
0.152783 0.052141 -0.181487
-0.168686 0.062711 0.413979
0.106992 -0.178743 0.395989
-0.082154 -0.246265 0.026980
0.173409 -0.200727 0.038668
0.309460 -0.004970 0.132446
0.061915 -0.211251 -0.030741
0.137208 0.013340 -0.197593
0.065048 -0.052743 -0.340509
0.241277 -0.009150 0.353527
0.277619 0.098422 0.220056
0.003694 -0.087027 -0.500000
-0.050142 -0.144920 -0.176195
-0.075412 -0.005852 0.462820
-0.166485 -0.199460 0.013995
0.044798 -0.199752 -0.076623
0.078689 -0.266835 0.122494
-0.149455 -0.151518 0.384653
-0.054597 0.052314 0.472316
-0.089269 -0.001693 0.466064
-0.062429 -0.013878 -0.500000
0.056830 0.036916 0.465578
0.138300 -0.112579 -0.126670
-0.077950 -0.073173 -0.254166
-0.210892 0.132782 -0.046801
-0.205124 -0.221000 0.147726
-0.081852 -0.067980 -0.263397
0.174893 -0.190481 0.042750
0.194521 0.069460 0.425839
-0.054350 0.246880 0.011133
0.090111 0.158238 -0.083930
0.233610 0.149919 0.220299
-0.074361 -0.174660 0.449011
-0.153443 0.026441 -0.199132
0.244797 -0.093360 0.080895
0.145972 0.193915 0.322920
0.099504 -0.135972 0.446779
-0.031593 0.161439 -0.181338
-0.230404 0.170700 0.113216
-0.250958 0.059681 0.034701
-0.047863 -0.138437 -0.167623
0.166575 0.210707 0.104506
-0.057532 0.110890 -0.414238
0.208332 0.037672 0.432663
-0.035970 0.069823 -0.500000
-0.021508 0.146068 -0.147860
0.155569 -0.083489 -0.098293
-0.090300 -0.173861 0.452643
0.054861 0.035778 -0.299881
0.111161 -0.067988 -0.416462
-0.125302 -0.258851 0.201779
-0.078651 -0.097610 -0.234953
0.051214 -0.082100 -0.308600
-0.128976 0.245552 0.260207
0.024589 0.186270 0.432183
0.026852 -0.025993 0.496124
0.021201 0.224942 -0.026224
-0.083145 0.087839 -0.396670
0.258677 0.067143 0.003413
-0.015665 0.243556 -0.010055
0.139836 0.005953 -0.223232
-0.018158 -0.101132 -0.359839
-0.275495 -0.076384 0.061420
-0.005164 0.255573 0.027439
0.086560 -0.053143 -0.500000
-0.029312 -0.083255 -0.500000
0.043960 0.215373 -0.014382
-0.047459 0.150977 -0.124875
-0.194447 -0.016521 -0.126908
-0.090248 0.052607 -0.260810
-0.124452 0.262131 0.064844
0.112604 -0.159585 0.450792
0.122429 -0.076107 -0.492711
-0.262342 -0.159790 0.110010
0.230541 -0.039968 -0.068557
0.017144 -0.021575 0.463034
-0.301464 0.046413 0.200082
0.199027 0.213734 0.281918
-0.095503 0.248238 0.074602
-0.081865 0.005967 -0.500000
0.005401 -0.101310 -0.347670
-0.167842 -0.163195 0.383679
-0.129438 0.017645 -0.422419
0.086094 0.043460 -0.293977
-0.149055 -0.198101 0.019794
-0.177533 0.032791 0.462395
0.220721 0.035606 -0.011700
0.037959 -0.269601 0.114457
-0.262268 -0.105170 0.317953
-0.164324 0.207466 0.105787
-0.044658 -0.143281 0.441467
-0.058156 0.256374 0.011924
0.306702 -0.023892 0.121182
-0.184212 -0.117661 -0.036469
0.099904 -0.070456 0.488211
-0.048374 0.166584 0.443631
0.132783 0.091121 0.471372
0.288935 -0.089241 0.088453
-0.280737 -0.117921 0.114854
0.021275 -0.144537 -0.494849
-0.254930 0.088774 -0.001650
0.274203 -0.116725 0.072588
-0.224968 -0.089830 0.335918
-0.026207 -0.047373 0.482367
0.087898 -0.267105 0.124483
-0.189534 0.141084 0.398793
0.027505 -0.139992 -0.450001
-0.251519 -0.115404 0.345551
0.021851 -0.081417 -0.328612
0.073627 -0.236201 -0.026972
0.113838 -0.114630 0.431052
-0.156569 0.176831 0.331852
0.086092 0.236334 0.375196
0.026979 0.303466 0.162038
-0.061189 0.097827 -0.362038
0.189065 0.164287 0.051697
-0.061697 -0.088469 -0.331885
-0.222326 -0.094800 0.351989
0.109641 0.016977 -0.357850
-0.169211 -0.215303 -0.001927
0.067781 0.074530 -0.303325
-0.100257 -0.264956 0.056821
0.290361 -0.078062 0.087481
-0.182863 -0.020401 -0.151485
0.233254 -0.103009 0.297896
-0.083136 0.082273 -0.237163
0.028838 0.232296 0.004864
-0.287176 -0.061517 0.305594
0.124024 0.127465 -0.092848
0.077863 -0.299006 0.116682
0.021775 0.116648 -0.388382
0.235387 -0.011577 0.398823
0.090092 0.198962 0.374116
-0.305971 0.027948 0.242356
0.255565 0.072550 0.013959
0.238435 0.013942 -0.010180
-0.024027 0.093440 -0.289965
-0.042220 0.093167 -0.276537
0.076942 -0.221481 0.408611
0.061721 0.090671 -0.359481
0.260531 -0.152907 0.261428
-0.169009 -0.238738 0.214825
-0.040803 -0.102240 -0.305077
0.030794 0.096541 -0.218055
0.044631 0.093901 -0.280738
0.162121 -0.224104 0.187986
0.018790 0.046238 0.488577
0.044594 -0.038310 -0.500000
0.071279 0.260386 0.155716
0.019202 0.007640 0.497716
0.030185 -0.115264 -0.216909
-0.048614 -0.276950 0.044526
-0.192088 0.024104 0.444378
-0.059657 0.115583 -0.431701
-0.034404 -0.262880 0.057471
0.137190 -0.141360 0.441092
-0.066537 0.107205 0.470596
-0.142845 0.250450 0.089730
-0.059324 -0.177818 -0.155031
-0.263288 0.008747 0.018121
0.013808 -0.209194 -0.060207
-0.118544 0.062984 -0.500000
0.035728 -0.121896 -0.398578
-0.007185 0.099750 -0.500000
0.180533 -0.239661 0.217931
0.127166 0.025011 -0.426299
-0.168159 0.071456 0.429932
0.087676 -0.030522 0.463892
-0.045315 -0.121367 -0.500000
-0.011162 0.153817 -0.159117
0.043325 0.070366 0.474251
0.128600 0.003356 -0.420197
-0.240899 0.128678 0.166922
0.121141 0.266021 0.100903
0.028510 0.256852 -0.023366
-0.192166 0.187149 0.103641
0.212919 0.000155 -0.032147
-0.141901 0.129637 -0.079481
0.281922 0.091358 0.214462
0.129034 -0.265841 0.139962
0.125062 -0.026347 -0.414614
0.000779 0.260565 0.021278
-0.148445 0.191295 0.320054
-0.119262 0.162076 -0.116346
-0.062239 -0.271442 0.037112
-0.129531 -0.003989 0.447124
-0.096638 -0.263564 0.261934
0.115799 -0.026329 -0.361982
-0.077618 -0.145075 0.429874
-0.084223 0.176159 -0.123930
0.280350 0.120460 0.223340
-0.190901 0.031421 0.424885
-0.138666 0.034077 -0.482813
0.004176 0.111670 -0.360478
0.075733 -0.206837 -0.056919
-0.164476 0.060346 0.425263
0.118372 0.249711 0.098505
0.149022 -0.103585 -0.112807
0.034834 0.032336 0.497813
0.088211 0.225481 0.347001
0.016902 -0.262103 0.357806
-0.105106 0.053937 -0.362873
-0.050973 0.137635 -0.164870
-0.182378 -0.194684 -0.021488
0.187920 -0.229529 0.225955
0.005004 -0.214180 -0.067849
0.224310 -0.148125 0.254049
-0.035932 0.133666 -0.468641
0.209189 0.126398 0.023905
-0.142803 0.198736 0.314696
-0.224266 -0.140474 0.361134
0.079455 -0.034848 0.493820
0.134669 -0.116244 0.463283
0.083643 0.071617 -0.360832
0.271180 -0.002921 0.137448
-0.234563 0.056153 -0.004836
-0.077265 0.255486 0.252563
0.254022 -0.047770 0.368845
0.197129 -0.025106 -0.080852
0.018753 -0.088482 -0.267763
-0.181467 0.125701 0.407452
-0.049701 0.159272 0.465848
-0.154627 -0.147300 0.426073
0.117907 -0.112104 0.473498
-0.065910 0.120735 0.467335
0.056311 -0.235892 -0.039258
0.216122 -0.055833 -0.065169
-0.008001 0.008551 -0.500000
-0.162729 0.040801 0.455385
0.164554 -0.068983 -0.089156
-0.261172 0.113575 0.193158
0.189285 -0.182581 0.007463
0.134890 0.028021 -0.454404
-0.157450 0.019353 -0.192860
0.211837 0.193338 0.052196
-0.172330 0.057210 0.448086
-0.161731 -0.028396 -0.112212
0.118776 -0.007580 -0.500000
0.284902 0.120736 0.211880
-0.067764 0.064538 -0.341097
-0.177477 0.109000 0.377961
0.245531 0.036562 0.002699
0.009844 0.292573 0.162559
-0.096517 -0.296560 0.250851
0.271973 -0.064016 0.125704
-0.187205 -0.131425 -0.027125
0.080255 -0.031199 -0.500000
-0.103845 0.241339 0.281631
-0.009085 0.138140 -0.492621
-0.012426 0.121920 -0.409596
-0.011396 -0.204017 -0.079486
0.141424 0.010285 -0.473757
0.204433 0.203784 0.057720
-0.031190 0.267155 0.212396
-0.184053 -0.094545 -0.052591
0.224964 0.145561 0.250508
0.034199 0.220398 -0.007999
0.148222 0.062289 -0.191030
-0.104024 0.075531 -0.500000
0.222437 0.065560 0.009315
0.218591 0.045426 0.405286
0.111547 0.084584 0.443359
0.024060 0.140308 -0.211134
-0.106594 -0.057273 -0.273915
0.252429 -0.087238 0.075825
0.242057 -0.128059 0.308785
0.216205 -0.220607 0.204840
-0.053660 0.278117 0.247975
-0.158615 0.129318 -0.079492
-0.261234 -0.059452 0.319977
0.218838 -0.201912 0.251863
0.094632 -0.011630 -0.277712
0.106100 0.004818 -0.212447
-0.055888 0.272344 0.035791
0.187686 0.074497 0.428875
-0.284686 -0.112076 0.093866
0.206474 -0.070188 -0.094214
-0.030813 0.238677 0.003662
0.002852 0.098044 -0.500000
0.117926 0.073055 -0.149961
0.092991 0.216137 -0.045981
-0.048455 -0.138650 -0.480029
0.202429 0.043224 0.437553
-0.067833 -0.099678 -0.213062
-0.084174 -0.087830 -0.361706
-0.023812 -0.039011 -0.500000
-0.180512 0.152836 -0.043851
0.065754 -0.305513 0.120433
0.164256 0.209247 0.287092
0.045051 -0.119456 -0.401477
-0.066931 0.269197 0.256853
-0.024509 0.030879 0.498834
-0.107610 -0.079773 -0.424645
-0.196352 0.227746 0.112891
0.121698 -0.111205 -0.183605
0.228453 0.170605 0.056734
-0.254327 0.174652 0.147699
0.087406 0.199776 -0.037188
-0.113436 -0.091716 -0.475527
0.206134 -0.025307 -0.086301
0.057867 0.076431 -0.300775
-0.110612 0.152497 -0.123440
0.062460 -0.035974 -0.500000
-0.026564 0.066525 -0.500000
0.134251 0.045546 -0.215390
-0.005871 0.099375 -0.332155
-0.194249 -0.244269 0.168945
-0.186610 0.193932 0.121994
0.039138 0.003210 0.489334
-0.017567 0.060969 0.484406
0.071442 0.085405 -0.282065
-0.140505 0.210090 0.294771
-0.017417 -0.065448 0.494370
-0.161172 0.232693 0.064959
-0.173811 -0.162928 -0.050718
-0.104081 0.094307 -0.495719
0.047353 -0.106828 -0.358585
-0.023205 0.164091 -0.179153
-0.015544 0.234188 0.021028
0.063878 0.231589 -0.016952
-0.053463 -0.117847 -0.404328
-0.040966 -0.069628 -0.297700
-0.087508 0.242110 0.069147
-0.178369 -0.118250 -0.077784
-0.018486 -0.087493 0.494265
0.031018 0.007501 0.493047
-0.054773 0.011224 -0.357777
-0.185701 0.001785 -0.147361
-0.067146 0.169998 -0.150007
0.042925 0.065089 -0.500000
0.269372 -0.126035 0.082336
-0.270444 -0.087789 0.066733
0.145487 -0.074197 -0.134871
-0.232467 0.147201 0.160756
-0.052582 -0.133794 -0.153960
0.157777 0.230504 0.324026
0.261988 0.075981 0.195897
0.048619 -0.009656 0.493241
-0.202531 -0.143213 0.393669
-0.203740 0.184024 0.102120
0.197483 -0.043160 -0.101612
-0.236951 0.191517 0.117165
-0.187424 0.208959 0.125754
0.115263 0.044788 -0.207239
0.231353 0.157914 0.224063
0.274415 -0.072237 0.079247
-0.001287 0.230938 0.011802
-0.024802 -0.060763 0.483857
0.153140 0.074750 -0.156047
-0.181642 0.030192 0.420932
-0.072554 0.150374 -0.152463
0.076183 -0.039341 -0.500000
0.076134 -0.051700 0.493014
0.145490 0.081191 -0.178370
0.229709 0.004187 0.363604
0.093087 -0.259463 0.145396
-0.067528 0.144749 -0.113174
0.122387 -0.226036 0.006607
0.112134 -0.051618 -0.386917
-0.166578 0.034321 0.462399
0.043307 0.066653 0.465746
0.070707 0.231606 -0.023767
0.110619 -0.062078 -0.406608
0.084540 0.065977 0.490101
0.123349 0.274217 0.108425
-0.099420 -0.284069 0.266222
-0.254642 -0.079256 0.074212
0.028204 -0.268334 0.318018
-0.025046 -0.103007 0.491697
-0.002431 -0.001467 0.500002
0.133542 0.221722 0.313106
0.031895 -0.007295 -0.500000
0.231098 -0.020850 -0.074499
-0.123203 0.223124 0.300032
0.025656 0.219563 -0.018880
-0.182758 -0.161989 -0.008275
-0.154635 -0.169214 -0.011630
0.228659 0.099802 -0.002884
0.252096 0.085176 0.023729
0.254674 -0.087112 0.105414
0.243300 -0.051488 0.321995
-0.216557 -0.129739 0.338133
-0.144462 0.196062 0.328159
0.250379 -0.142578 0.252496
0.131721 0.136714 -0.134240
-0.147246 -0.189048 0.011104
-0.174323 0.120152 -0.033362
0.052520 -0.048993 0.477199
-0.028959 0.127678 -0.178799
-0.085588 -0.296470 0.264858
0.124329 0.025904 -0.182253
-0.086203 -0.275886 0.037274
0.024273 0.111125 -0.500000
-0.073351 0.062736 -0.500000
0.244493 0.163038 0.222176
-0.212409 0.118152 -0.049544
-0.024922 -0.142723 0.476115
-0.277306 -0.033109 0.040356
0.230718 0.146763 0.058945
0.084786 0.061949 -0.359686
0.151539 0.079749 -0.145794
0.093592 -0.104166 -0.448170
0.104114 0.237099 0.362728
0.081522 0.060416 0.454872
0.083164 -0.189675 0.385430
-0.267296 0.146777 0.173018
-0.026939 -0.071851 0.471854
0.114844 -0.146890 0.413600
-0.076258 -0.281885 0.044629
0.287551 0.114631 0.203318
0.128470 0.026075 -0.500000
-0.179608 0.193803 0.317406
-0.072175 0.078360 -0.354249
-0.173974 0.221052 0.318316
0.097967 -0.075509 0.449669
-0.271679 -0.075277 0.282018
0.155545 0.209451 0.097709
0.115975 -0.054228 0.464350
-0.038198 0.170316 -0.158524
0.108804 0.199502 0.349600
0.071610 0.236473 -0.034558
-0.171805 0.002522 0.466664
0.195720 0.217407 0.068854
-0.057484 -0.250880 0.051371
0.101803 0.065428 0.450871
-0.164661 -0.011861 0.458282
-0.046124 -0.193584 -0.120876
0.028534 0.207447 0.386744
0.149236 0.228755 0.077995
-0.011892 0.028613 0.497377
0.069832 0.119866 -0.476055
0.058945 0.289909 0.136488
0.231625 -0.140707 0.081231
-0.156839 -0.229267 0.201356
0.078468 -0.051543 0.456290
0.080287 -0.020602 -0.259443
-0.009529 -0.145526 -0.468092
-0.115474 -0.085608 -0.500000
0.098936 0.260541 0.151481
0.057802 -0.268630 0.130338
-0.128344 0.031645 -0.428678
0.101703 0.092521 -0.457852
-0.010317 -0.290610 0.294830
0.119406 -0.056908 -0.426744
0.231867 -0.206531 0.222156
-0.143975 -0.238780 0.195044
-0.124720 0.031533 -0.416548
0.257519 0.090622 0.208429
0.035469 -0.125049 -0.409489
-0.057593 -0.138614 0.477934
-0.125840 -0.265167 0.247646
0.193110 0.056539 0.444686
-0.276059 -0.017109 0.282634
0.109713 0.249347 0.106499
0.082892 -0.292399 0.153671
0.199034 -0.065232 -0.069620
0.240684 -0.103505 0.325107
-0.179375 0.086876 0.431012
0.139755 0.003113 -0.460226
-0.090898 -0.087922 -0.250436
0.030128 0.126618 -0.434803
-0.127253 0.042716 -0.436794
-0.240788 -0.180752 0.160741
0.079903 -0.069471 -0.317705
0.037149 -0.137132 -0.450568
0.267734 -0.129595 0.069536
-0.118487 0.076816 -0.475655
-0.051331 -0.070574 -0.303157
-0.111522 -0.264665 0.041962
-0.115304 0.243587 0.299211
-0.011200 0.179171 0.414014
-0.079051 -0.269856 0.279031
0.130095 0.155728 -0.084174
0.234437 0.158384 0.039239
0.042194 0.024334 0.491847
0.189953 0.190703 0.311191
-0.053027 -0.040738 -0.500000
-0.155173 0.214468 0.102293
-0.086793 -0.235043 0.041930
0.259005 -0.072203 0.350650
-0.207004 0.104084 -0.044676
-0.087211 -0.116325 -0.222844
0.126219 -0.216715 -0.032504
0.189155 0.215760 0.282233
0.293091 -0.028256 0.104640
-0.018748 -0.180455 -0.091987
-0.169933 0.080003 0.406715
0.237071 -0.200912 0.233689
0.166483 -0.211770 0.029276
-0.240253 -0.194501 0.161204
0.256851 0.085864 0.015395
0.068853 -0.214832 -0.024578
-0.249341 -0.076631 0.293853
0.221694 0.073503 0.013871
-0.007616 -0.005328 0.460610
0.043048 0.069997 -0.252739
0.068662 -0.089543 -0.357767
-0.101780 -0.105402 -0.478061
-0.219050 -0.109193 0.372119
0.101297 -0.161876 0.405290
0.254961 0.162361 0.252914
-0.036537 -0.192079 -0.139756
0.026994 -0.058980 -0.352590
0.020873 -0.123882 -0.231349
0.301191 0.042165 0.180120
-0.012029 0.186948 0.454991
0.095348 -0.016311 -0.500000
-0.101679 -0.024692 -0.306064
-0.042779 0.097839 0.452151
0.028782 -0.014288 0.499431
-0.109429 0.275399 0.244184
-0.196492 -0.104280 -0.090610
0.218211 0.169119 0.282413
-0.031076 0.067293 0.458850
-0.106625 0.002631 -0.500000
0.080976 -0.229124 0.402669
-0.269428 -0.032957 0.257169
-0.011804 -0.075398 -0.285547
-0.124181 -0.250256 0.042008
0.114752 0.191850 -0.079059
0.064931 -0.045679 -0.355007
0.096906 -0.221871 0.397223
0.124021 0.238564 0.098507
0.038189 0.047885 0.496436
0.087256 0.097968 -0.438130
0.011396 -0.124380 -0.247033
0.100630 0.004652 -0.220781
0.002246 0.108451 -0.213829
-0.273292 0.052173 0.020518
-0.157362 0.035148 -0.161237
0.176063 -0.215071 0.019906
0.224743 -0.047511 -0.063388
-0.177200 -0.204625 -0.009665
0.182535 0.222597 0.065925
0.056190 -0.036707 0.459755
-0.143579 0.003871 -0.178372
-0.271941 0.149734 0.161457
-0.036009 0.128160 -0.500000
-0.111245 0.046236 -0.190933
0.084622 -0.209586 -0.054072
0.218396 -0.139234 0.040186
0.058542 0.050152 0.494814
-0.246762 0.084914 -0.019375
0.278668 0.123884 0.197071
-0.032530 0.135697 -0.483346
-0.153355 0.159382 -0.089763
0.108026 -0.041742 -0.281436
-0.165322 -0.153217 0.421194
0.069125 -0.231032 0.400184
-0.072880 0.282398 0.213654
0.065842 -0.205738 0.403714
-0.114176 -0.080789 -0.444918
-0.070928 -0.015286 -0.297825
-0.227812 0.201765 0.110860
0.100969 -0.103459 -0.494655
0.125430 0.009246 -0.500000
-0.083520 0.042299 -0.320931
-0.246697 0.097408 0.004808
0.195096 0.030792 0.392644
0.200183 0.013635 0.417022
-0.204909 0.214844 0.126866
-0.281445 -0.125614 0.102529
0.203717 -0.185784 0.219980
0.136236 -0.104505 0.463341
-0.199569 0.139962 0.394301
0.191941 -0.212300 0.191753
-0.194002 0.102679 -0.038621
0.132713 0.035858 -0.171735
-0.271697 0.001767 0.258382
0.192915 -0.199623 0.206245
-0.085422 -0.149173 -0.162695
-0.054987 -0.120588 -0.500000
0.056826 0.199880 -0.038776
-0.120332 -0.080272 -0.466222
0.118125 -0.045076 -0.406411
0.081063 -0.134515 -0.188038
-0.178475 0.105361 0.418102
0.133383 -0.000469 -0.213888
-0.297865 0.069756 0.220071
0.209919 0.197338 0.077357
-0.093505 -0.118838 -0.176382
0.070861 -0.234993 0.355287
0.196591 0.218930 0.078124
-0.055889 0.174581 -0.139161
-0.058927 0.135653 -0.147082
-0.036184 0.305810 0.213110
-0.053439 0.157568 -0.169175
-0.076408 -0.103843 -0.403781
-0.021751 -0.178179 -0.140229
-0.027006 -0.162130 -0.141559
-0.194983 0.120516 -0.014055
0.208594 0.120663 0.032739
0.193874 -0.194169 0.045583
-0.091990 -0.150277 0.460704
0.137846 -0.209314 -0.024693
-0.136493 -0.236897 0.000575
0.136208 -0.276071 0.181040
-0.099765 -0.176545 0.445749
-0.266955 -0.013326 0.029574
0.175910 0.040698 0.411050
-0.022368 -0.087501 -0.325893
-0.249237 0.002620 0.049272
0.221105 0.183121 0.064314
0.067043 -0.078148 -0.338028
0.215249 0.138884 0.060491
0.059301 -0.306224 0.114226
-0.062970 0.092425 -0.500000
0.128617 0.049390 -0.456295
-0.105562 0.169101 -0.086610
0.115667 -0.184419 0.433256
0.041519 0.189315 0.396198
0.081337 0.103734 -0.500000
-0.167244 -0.171790 0.000709
-0.089054 -0.105235 -0.436148
0.154988 0.051203 0.447802
0.002201 0.138763 -0.490464
0.106297 0.089884 0.480285
0.262204 -0.055568 0.114204
0.234718 -0.092667 0.304649
-0.071935 -0.262840 0.273647
0.053412 0.235634 -0.049990
-0.110851 -0.168735 0.450013
0.129780 0.051257 -0.499743
-0.248076 0.116897 0.156949
-0.144508 -0.229970 0.030761
-0.079703 -0.174394 0.435665
0.130119 0.005352 -0.246999
-0.269496 0.062318 0.190624
0.253947 0.167551 0.234361
0.063782 0.122233 -0.500000
0.234131 -0.112550 0.309310
0.180918 -0.077399 -0.127176
-0.043261 -0.257162 0.056789
-0.036501 -0.271336 0.050586
-0.007239 -0.091250 -0.358365
-0.104587 0.006490 -0.355131
0.044274 -0.042987 -0.358338
0.232752 0.140097 0.250782
0.238418 -0.023422 -0.044569
0.135373 0.225386 0.099893
0.020007 -0.122683 -0.500000
0.022194 -0.129121 -0.250529
-0.230813 -0.147313 0.131256
0.154783 -0.097188 -0.152283
-0.024956 -0.300781 0.087406
-0.189271 -0.020865 -0.144537
-0.278013 -0.078108 0.288297
-0.288400 0.112317 0.189031
0.205171 0.130058 0.039361
-0.013927 -0.073689 -0.302640
0.077551 -0.128571 -0.219203
0.211061 0.206444 0.286030
0.000815 0.054090 -0.356175
-0.054927 0.157877 0.454743
0.103293 0.187228 -0.051274
-0.024542 -0.263751 0.283712
0.118093 -0.034206 -0.386720
0.227075 0.191178 0.279517
-0.188378 -0.151524 0.365386
-0.044289 0.295139 0.236209
-0.285195 -0.005359 0.035839
0.125309 -0.098688 0.438358
0.228191 -0.141633 0.036955
-0.035110 0.281321 0.190193
0.094939 -0.082253 -0.399459
0.033463 0.127370 -0.240331
0.078895 -0.237791 0.365850
0.175895 -0.170718 0.033912
-0.087717 -0.279241 0.228453
-0.301162 0.061432 0.223540
0.023449 -0.033081 -0.500000
0.224411 0.021109 0.418316
-0.190316 -0.109276 -0.041774
0.079563 -0.226915 -0.061565
0.011098 -0.072257 0.472553
-0.088264 0.051013 -0.218536
0.048820 0.121584 -0.438202
-0.268773 -0.098670 0.316010
-0.047262 -0.133103 0.482536
-0.149988 0.047428 -0.180142
0.209912 -0.144185 0.062502
-0.034809 0.235565 0.011215
-0.263138 -0.165747 0.119369
-0.070525 0.097406 -0.387219
-0.149022 0.193323 0.340276
-0.005327 -0.274578 0.105635
0.142469 0.130027 -0.132255
0.141549 0.094058 -0.123519
-0.084424 0.292605 0.237218
-0.142311 -0.025108 -0.481844
-0.205734 0.139987 0.376210
0.176907 -0.060962 -0.120219
-0.149778 0.013089 -0.192526
-0.126050 -0.255137 0.031488
-0.117271 0.056197 -0.242483
-0.170941 -0.005529 0.452524
0.100947 -0.118870 0.456367
-0.167489 0.200121 0.353841
-0.167945 -0.067584 -0.096643
0.052250 0.220913 -0.011087
0.104236 -0.101934 0.443032
-0.093503 -0.069933 -0.213894
-0.001212 -0.194546 -0.074377
-0.253072 0.069924 -0.011761
-0.101769 0.067682 -0.382196
0.072144 -0.008366 -0.500000
-0.021049 0.127873 -0.197715
-0.197667 -0.246418 0.181365
-0.035321 0.088251 0.456171
0.007459 0.138631 -0.476628
-0.141220 0.249181 0.270385
-0.285285 -0.005303 0.060921
-0.012023 0.117956 -0.389609
-0.137489 -0.242683 0.032044
0.015256 -0.051771 0.486354
-0.293539 0.081791 0.177958
-0.180004 -0.007463 -0.116818
0.025115 0.010036 -0.360625
-0.203655 0.088522 0.393795
0.043210 -0.076764 -0.500000
-0.132502 0.004299 -0.427088
0.073564 0.112109 -0.500000
-0.170981 0.109833 0.404270
-0.267918 0.104659 0.200745
0.011479 0.291990 0.206146
-0.216923 0.167486 0.146190
0.021840 0.223689 -0.003113
-0.109719 0.141533 -0.116590
0.148001 0.218453 0.082922
0.127197 0.104932 -0.110566
0.232033 -0.170635 0.040475
-0.095301 0.072342 -0.264845
0.120047 -0.080463 -0.478366
0.070000 0.039741 -0.500000
-0.286068 -0.100814 0.085088
-0.201274 -0.152498 -0.046695
-0.177303 0.218790 0.074637
0.062161 -0.210172 0.369728
0.110241 -0.041220 -0.271389
-0.160182 -0.236974 0.215762
-0.100392 0.029384 -0.349277
-0.268045 -0.153550 0.132017
0.145760 0.077397 0.471054
0.007150 -0.280426 0.340168
0.087440 -0.079601 -0.500000
0.012017 0.263995 0.006895
-0.304960 0.036441 0.238407
-0.163859 0.057713 0.434335
-0.079458 0.000638 0.473958
0.116924 0.067620 -0.157291
-0.109605 -0.005919 0.454378
-0.071996 0.113203 -0.445828
0.062133 0.268822 0.134847
0.238508 -0.126230 0.046868
-0.203410 -0.241264 0.173906
-0.051062 -0.120311 0.474188
-0.050990 0.040153 -0.500000
-0.020658 -0.265622 0.067072
0.223512 0.072216 -0.010427
0.132630 0.114213 -0.104749
0.160601 -0.108095 -0.123090
0.034923 0.214760 0.383143
-0.008713 -0.200659 -0.123783
0.236842 0.135018 0.216518
0.121726 0.085628 0.478662
-0.001417 0.044018 0.475323
-0.268648 -0.018738 0.251694
0.037614 -0.120513 -0.260196
0.012684 0.253436 -0.023898
0.035964 -0.034803 0.491903
0.116468 -0.084793 -0.486292
-0.053072 -0.024086 0.496625
-0.268886 0.076678 0.212452
0.106805 0.190808 -0.090674
0.221446 -0.028414 0.358166
0.011744 0.072381 -0.315220
-0.023508 -0.162403 -0.132531
0.012429 -0.275027 0.347312
-0.094355 0.036436 -0.323169
-0.284562 0.120443 0.185536
-0.055025 -0.162861 0.441257
-0.255413 -0.074369 0.286978
-0.135049 0.256598 0.081157
-0.062683 0.025433 -0.322554
0.288784 0.037784 0.139449
0.222226 0.163008 0.068110
0.203044 -0.057633 -0.105534
-0.181111 0.055231 0.451139
-0.225396 -0.214148 0.144265
0.170239 0.071589 0.458357
0.073129 0.196271 0.384505
0.063627 -0.111389 -0.372580
0.226680 0.174598 0.048589
0.042790 -0.118272 -0.204981
0.010095 0.092887 -0.317203
0.122650 0.000877 -0.399612
-0.266645 0.059902 0.199931
0.019799 -0.106685 -0.344632
0.101833 -0.060394 -0.361760
0.061516 0.214021 0.364391
0.175149 -0.047720 -0.098634
0.092988 0.199429 0.360350
-0.018106 0.130200 -0.439734
0.130040 0.054730 -0.154637
0.297061 0.086247 0.180901
-0.252078 -0.021429 0.051617
-0.038090 -0.175867 -0.154304
0.122182 -0.085605 -0.145946
0.012757 -0.068616 -0.500000
-0.132484 0.221449 0.282389
0.007878 0.025929 -0.360625
-0.069462 -0.012312 -0.359321
-0.060876 0.058589 -0.340217
-0.191858 -0.019431 -0.112516
-0.285779 0.027014 0.252248
-0.097618 0.244644 0.256756
0.232818 0.022334 0.407851
-0.022267 -0.290485 0.060474
0.180063 0.222623 0.311447
0.017461 -0.002264 -0.360625
-0.042131 0.114670 -0.406745
0.109901 -0.093930 -0.475186
-0.062138 0.288035 0.249924
0.114741 0.088333 -0.150700
-0.027642 0.016091 0.496072
0.014648 0.108592 -0.200602
-0.158154 -0.015554 0.465597
-0.023075 0.187397 0.454305
-0.043756 0.119357 -0.500000
0.072346 -0.078686 -0.315940
0.077787 0.093212 -0.371576
0.140437 0.016889 -0.227845
0.123373 -0.170673 0.440036
-0.207771 0.125827 0.383578
-0.048900 0.129920 -0.493200
-0.094812 -0.133266 -0.193064
-0.113529 0.263383 0.244624
0.239980 0.135198 0.047560
0.125201 0.061982 0.467867
0.252092 -0.166026 0.276055
-0.008816 0.280762 0.217166
0.084440 0.259193 0.153551
-0.186079 0.126783 0.361140
0.262018 -0.067656 0.114943
0.050247 0.116954 -0.424620
-0.158545 0.214177 0.292855
0.115163 -0.102537 0.436003
0.026475 -0.064428 -0.341954
0.122407 -0.105610 -0.130250
-0.137848 0.025256 -0.456073
0.003017 -0.078469 0.462130
-0.058443 -0.182988 -0.142389
0.159516 -0.229178 0.201409
0.143960 0.133914 -0.114180
-0.045343 0.082887 -0.360286
0.027548 0.051855 0.490314
0.041424 0.080954 -0.339239
-0.132724 -0.149248 0.396367
-0.137661 0.016680 -0.198341
0.217137 -0.190111 0.211588
-0.024993 0.233376 0.009772
-0.203391 -0.137611 -0.060203
-0.257034 -0.092669 0.298029
-0.079208 -0.028911 0.493274
0.137757 0.267297 0.126715
-0.155287 0.225117 0.286251
0.065809 -0.301309 0.110123
0.139385 -0.012957 -0.457230
-0.147142 -0.183303 0.002170
-0.250039 0.043250 -0.000709
-0.009908 -0.090412 0.456523
-0.118504 -0.163417 0.404790
-0.114888 -0.002922 0.485697
0.034175 -0.096025 -0.500000
-0.020147 0.150849 -0.198171
-0.131330 0.030654 -0.438011
-0.157359 -0.190996 0.014545
-0.093440 -0.088814 -0.196916
0.059739 -0.110708 -0.392443
0.002278 0.101744 -0.350496
0.039634 0.226582 0.406440
-0.014376 0.084919 -0.500000
-0.013630 0.017182 -0.500000
-0.099821 0.007366 -0.331446
0.112599 0.046398 -0.367770
0.113190 -0.096135 -0.140914
-0.104636 0.259888 0.038871
0.152761 0.193224 0.308311
0.188074 0.062986 0.410058
-0.148465 0.026284 -0.151122
0.152900 0.063932 -0.163547
0.052596 0.042099 -0.290790
-0.208026 0.108824 0.402553
-0.048781 -0.117890 -0.395493
-0.082366 0.059535 -0.500000
0.281400 0.047290 0.189480
-0.001289 0.113307 -0.195661
-0.163214 -0.043815 -0.123984
0.031587 -0.233738 0.366386
0.144009 -0.225137 0.012881
-0.249522 -0.152617 0.102385
-0.264778 -0.044789 0.305369
-0.124946 -0.282336 0.212620
-0.022297 -0.258013 0.295946
-0.103262 -0.054086 -0.500000
-0.177263 -0.225820 0.203514
-0.284381 0.074641 0.176017
-0.026470 -0.083795 0.489188
-0.143004 0.012704 -0.487354
0.212515 -0.172123 0.062691
0.061484 0.107873 -0.415259
0.079216 0.058521 0.489812
-0.105605 -0.239444 0.052961
-0.105605 0.077284 -0.430111
0.062522 0.195731 0.400352
0.200570 0.167752 0.270147
-0.004527 0.099104 -0.319550
-0.022503 0.060645 0.464252
-0.037867 0.164020 -0.136799
0.084164 -0.067444 -0.309242
-0.229065 -0.124353 0.372140
-0.067254 0.042211 -0.324682
0.268117 -0.032146 0.125769
0.085250 -0.171516 0.409188
-0.255961 -0.180643 0.140797
0.155788 0.091969 0.444178
-0.189412 0.109327 -0.049856
-0.083531 -0.103044 -0.180983
0.233516 -0.122451 0.303079
0.265696 -0.052714 0.122086
0.113206 -0.025991 -0.500000
0.309113 -0.013482 0.138302
0.030726 -0.125722 -0.221982
0.060287 0.199631 0.408278
-0.072102 -0.001256 -0.293354
0.067384 -0.050987 0.490812
-0.285928 0.013155 0.215547
-0.066101 0.145746 -0.156945
0.225072 -0.122547 0.066148
-0.307811 0.016908 0.225330
0.184692 0.184273 0.306169
0.172476 -0.219591 0.213255
-0.255058 -0.103440 0.346896
0.186093 -0.208677 0.226735
0.050844 0.245637 -0.038700
0.228093 -0.129561 0.079695
0.261541 -0.028931 0.356616
-0.106779 -0.275532 0.262245
-0.249071 -0.101216 0.089714
-0.055381 0.079484 0.458536
0.176971 -0.211125 0.003218
-0.209104 0.098300 0.402869
-0.125681 0.258371 0.078226
-0.196666 0.136895 -0.023512
0.096635 0.067908 0.486826
0.103284 0.159906 -0.111077
-0.140143 0.002329 -0.159823
-0.163757 -0.221244 0.005887
0.067530 0.300271 0.157528
0.217351 -0.017007 -0.033388
-0.060367 -0.134295 -0.484353
-0.039031 -0.126737 0.485850
0.115398 -0.100880 0.477921
0.000291 0.166549 0.444546
-0.301979 -0.032464 0.274178
-0.225273 -0.109233 0.322751
-0.150224 0.246896 0.094557
0.091608 -0.061025 -0.298148
0.156117 -0.203946 -0.013723
0.136030 0.197571 0.322552
-0.153428 -0.170895 0.398663
-0.267086 -0.095855 0.331007
0.110206 -0.201134 0.416687
-0.159745 0.178857 0.359332
-0.001689 -0.108872 0.481169
-0.171605 -0.010706 -0.113544
0.212878 0.009375 -0.034331
0.215427 0.013378 -0.047563
-0.119731 0.056501 -0.189795
-0.163989 0.047804 0.449148
-0.033575 -0.082162 -0.284003
-0.095973 0.102271 -0.484539
0.137261 -0.193427 -0.008761
0.054119 -0.236605 -0.065809
0.137277 0.203309 0.312030
0.254532 -0.093272 0.068404
0.086943 -0.021384 -0.289853
0.002959 0.174917 0.414141
-0.086769 -0.096905 -0.187126
0.033774 0.112355 -0.364518
-0.235515 0.071871 0.023875
0.110520 -0.105197 -0.140327
-0.087800 -0.071781 -0.353664
-0.280408 0.002606 0.060821
-0.043070 0.164082 -0.171987
-0.080797 0.049663 -0.327654
-0.113274 -0.042997 -0.263949
-0.044085 0.161961 -0.129072
0.134915 0.078081 0.433341
-0.002211 0.293164 0.169507
-0.136777 -0.214004 -0.011275
-0.009655 -0.103363 -0.307269
-0.272556 -0.134632 0.126765
0.049326 -0.233001 0.343941
0.157307 -0.092985 -0.101659
-0.251745 0.127000 0.142924
-0.182730 -0.135996 0.406363
0.041670 0.125495 -0.443391
-0.102626 -0.071227 -0.365317
0.138811 0.016113 -0.461697
-0.117191 -0.229231 0.003136
-0.113666 -0.026488 0.454877
0.036754 0.274705 0.149707
-0.058664 0.058042 -0.286789
0.007982 -0.280564 0.074445
0.073788 0.265274 0.163006
-0.001083 -0.009079 -0.500000
-0.170529 0.139013 0.389332
0.047845 0.219860 0.375129
-0.259881 -0.145069 0.139585
-0.026494 -0.163474 -0.114378
-0.079543 -0.077543 -0.349871
0.239116 0.130006 0.014488
-0.111171 0.245298 0.082559
-0.122371 -0.043821 -0.412040
0.018210 -0.246304 0.357767
-0.107313 0.271484 0.281798
0.249365 -0.149958 0.072511
-0.107264 0.258873 0.074379
0.114342 -0.127433 -0.157389
-0.124320 0.229536 0.051604
0.261081 0.159918 0.240478
0.182499 0.182381 0.082712
0.168736 0.204119 0.063779
0.236869 0.143020 0.052310
0.147187 -0.237929 0.166821
-0.076664 -0.085069 -0.500000
0.019110 0.198513 0.393421
-0.018647 -0.167094 -0.111550
-0.063601 0.010099 -0.500000
-0.094486 -0.036517 0.481868
