0.58191615 0.68060374 0.84010381 0.00002392 -0.00011963 0.00001749
0.22185965 0.52513677 0.72032225 -0.00019782 0.00002985 0.00012499
0.73234582 0.56568396 0.51268905 0.00018340 -0.00002749 0.00010505
0.71677321 0.51240408 0.49074456 -0.00001239 -0.00005713 0.00015498
0.47817186 0.58467484 0.23639508 0.00005913 0.00015697 0.00002834
0.46163279 0.58442664 0.24860233 -0.00000137 0.00017234 0.00003928
0.56996161 0.29838362 0.87146282 -0.00005153 -0.00008957 0.00022519
0.55612445 0.58215755 0.17319885 0.00006128 0.00004440 0.00010792
0.73686039 0.36072347 0.73766041 0.00018808 -0.00004431 -0.00009462
0.34637031 0.28269547 0.69529408 -0.00005503 0.00008410 0.00012520
0.46292093 0.40678430 0.22265694 -0.00013480 -0.00014070 0.00001757
0.52800906 0.58749390 0.30176768 0.00000939 -0.00007020 0.00003568
0.54058808 0.58509392 0.24478325 -0.00009601 0.00012024 -0.00008088
0.64739692 0.29599908 0.67089510 -0.00005480 0.00008892 -0.00003423
0.51709628 0.54176402 0.94415903 -0.00008199 0.00012091 0.00005100
0.54055440 0.46490237 0.04545457 0.00000409 -0.00000545 -0.00015139
0.56481349 0.73644358 0.64155877 -0.00001756 -0.00009560 0.00003695
0.51747084 0.50667500 0.95246726 0.00001903 -0.00002307 0.00014284
0.52745533 0.39494431 0.30280951 -0.00007253 0.00000134 0.00007977
0.45582005 0.24795735 0.54047716 0.00005739 -0.00005743 -0.00013700
0.32538942 0.52164227 0.90397823 -0.00021200 -0.00006438 0.00001512
0.44578099 0.60480481 0.10754444 -0.00006706 0.00018512 0.00003251
0.46873823 0.26074824 0.55224532 0.00004933 0.00007437 -0.00005668
0.62473243 0.37122074 0.90099096 0.00020158 -0.00010234 0.00002618
0.43952647 0.59718841 0.92781276 -0.00019799 -0.00000815 0.00001612
0.37015569 0.72741085 0.58157164 0.00002353 0.00016098 0.00010699
0.44608372 0.33807716 0.35906211 -0.00005605 -0.00020936 -0.00010214
0.26066229 0.50768137 0.51647270 -0.00001004 -0.00004488 -0.00015801
0.51256722 0.30955359 0.44526556 -0.00005692 -0.00000553 0.00012345
0.39224750 0.55698758 0.04545457 -0.00010948 0.00011554 -0.00024379
0.53249443 0.38891524 0.13765621 0.00004147 -0.00015572 0.00002593
0.49348274 0.59041119 0.04545457 -0.00001874 0.00000838 -0.00017344
0.66413510 0.28185639 0.69811773 -0.00006169 -0.00008523 0.00015592
0.61561978 0.52246678 0.11245534 0.00017441 0.00007252 0.00005194
0.34714302 0.56468946 0.89084554 0.00013998 0.00003701 0.00005941
0.57971978 0.47198236 0.92171824 0.00008593 0.00004560 -0.00008227
0.45881912 0.38939613 0.04545457 0.00003625 -0.00000092 -0.00021851
0.48986730 0.63956290 0.35534757 0.00011314 0.00004525 0.00010717
0.53940082 0.56369853 0.93113542 -0.00007605 0.00011392 -0.00000658
0.61692339 0.50278044 0.11800259 0.00018186 0.00001387 0.00007074
0.28101590 0.61670935 0.65174609 0.00011839 -0.00004987 0.00004734
0.61014247 0.74156636 0.59172887 -0.00007667 0.00009043 -0.00018017
0.52593261 0.73323089 0.47875732 -0.00001402 0.00018957 -0.00008307
0.32531852 0.66986465 0.59421796 0.00006755 -0.00006503 -0.00005891
0.69357687 0.49987045 0.47077459 -0.00009860 -0.00001589 0.00008898
0.37101388 0.61758113 0.42774376 0.00003680 -0.00011185 -0.00001340
0.75630671 0.58278209 0.69496411 0.00009356 -0.00007615 0.00015011
0.61731791 0.25805643 0.62723702 0.00011379 0.00000130 -0.00013196
0.61370701 0.47577780 0.12307806 0.00017271 -0.00005755 0.00005352
0.50072271 0.73660630 0.51934272 0.00013641 0.00008350 0.00012547
0.36506480 0.67363369 0.79095668 0.00008681 -0.00007208 -0.00003789
0.39159474 0.64707106 0.39423022 -0.00017686 0.00008089 -0.00013175
0.44343373 0.25296462 0.53373718 0.00005892 -0.00007082 -0.00012626
0.38225931 0.49610323 0.90647459 0.00005827 0.00002800 -0.00010249
0.41216198 0.26012644 0.73812038 -0.00002800 0.00011000 0.00006263
0.60528612 0.47579417 0.17092523 0.00008680 -0.00010154 0.00014026
0.42945284 0.36784348 0.89079279 0.00002067 0.00006161 -0.00008900
0.42344832 0.65987372 0.38733566 -0.00006123 0.00021921 -0.00001842
0.75487763 0.60923839 0.70303500 0.00023103 0.00001768 0.00015536
0.32646853 0.52829403 0.88625735 -0.00011976 -0.00010617 -0.00006482
0.37395477 0.53070855 0.06107908 -0.00024440 0.00009677 0.00002952
0.50381088 0.60124755 0.17229247 -0.00001297 0.00007280 0.00011801
0.56886256 0.31169632 0.44825464 0.00004270 0.00011986 -0.00005738
0.35049120 0.55458945 0.88660097 0.00009447 0.00000651 -0.00001442
0.60762525 0.72673905 0.58954889 -0.00008786 -0.00001128 -0.00012071
0.63548875 0.40556157 0.39744747 -0.00004514 -0.00012991 0.00011436
0.53168178 0.52912587 0.95255548 0.00004702 0.00001074 0.00021375
0.58020616 0.70471185 0.81545389 -0.00010503 0.00004935 -0.00011230
0.51537991 0.26145461 0.82527661 -0.00015625 -0.00000646 0.00016592
0.40446383 0.54876310 0.17011523 -0.00008918 0.00009035 0.00013205
0.45367554 0.62485200 0.35011756 -0.00007082 -0.00008119 -0.00002652
0.33421668 0.32274446 0.48046458 -0.00015552 -0.00016960 -0.00007316
0.67085052 0.29106727 0.70541227 -0.00009478 -0.00008960 0.00014026
0.50456357 0.30502087 0.43831828 -0.00009939 -0.00010870 0.00010634
0.70393229 0.36507076 0.73095226 -0.00008270 0.00005382 -0.00005242
0.46734914 0.62124383 0.07396268 -0.00005474 0.00021692 -0.00000771
0.69018596 0.61463660 0.52173084 -0.00013313 -0.00001258 -0.00006958
0.37019387 0.68039829 0.78608578 0.00009352 -0.00006556 -0.00002108
0.29613677 0.37202618 0.82830203 -0.00011922 -0.00016374 -0.00001439
0.57224619 0.46804965 0.94892544 0.00007719 0.00007470 0.00024001
0.62244064 0.39405340 0.92116457 0.00019065 -0.00007419 0.00016101
0.57605350 0.56483579 0.17197067 0.00000992 -0.00002373 0.00013504
0.74654132 0.49707413 0.62495154 -0.00011797 0.00001527 -0.00001192
0.28677589 0.55077761 0.49560270 0.00006006 -0.00008120 -0.00009195
0.42977378 0.73198909 0.72960132 0.00006262 -0.00010150 0.00002875
0.73094314 0.45630234 0.83531201 0.00013674 -0.00007404 0.00017243
0.67922235 0.47690597 0.42649740 -0.00006009 0.00009951 -0.00002941
0.51706266 0.41929156 0.25657868 0.00002146 0.00007556 -0.00001236
0.33504486 0.61400294 0.87040919 0.00006561 0.00007632 0.00015337
0.45483190 0.64452201 0.92349643 -0.00020601 0.00018481 0.00017341
0.35944483 0.36582074 0.88733739 -0.00011675 0.00006150 0.00015172
0.60720247 0.39781705 0.93045086 -0.00000300 -0.00012879 0.00019698
0.44009647 0.60948843 0.92484826 -0.00021190 0.00002671 -0.00000707
0.55120623 0.28528273 0.46431005 -0.00010853 -0.00015648 0.00014968
0.69648868 0.44897237 0.44075465 0.00009355 -0.00013355 0.00008917
0.49274093 0.50750315 0.04545457 -0.00001033 -0.00000677 -0.00013689
0.35207939 0.53682131 0.91398460 0.00009219 0.00006619 0.00010850
0.64960873 0.43701786 0.41894832 -0.00008666 0.00003077 0.00008526
0.26258594 0.60297930 0.67559689 0.00008047 0.00005301 0.00013076
0.67209142 0.33374718 0.50678360 0.00005959 0.00005182 -0.00015238
0.62264156 0.52520311 0.08690540 0.00020452 0.00004179 0.00003060
0.35687843 0.51732314 0.32467216 -0.00011937 -0.00008831 -0.00012206
0.69259322 0.67549098 0.54744989 0.00009133 0.00014190 -0.00014830
0.34335119 0.55173856 0.90734911 0.00007986 0.00009494 0.00015628
0.35298663 0.47391507 0.39798838 0.00007905 0.00000061 0.00004853
0.60799253 0.49283868 0.04545457 -0.00003446 -0.00000292 -0.00020979
0.75901580 0.60948932 0.69261688 0.00022813 0.00010270 0.00006884
0.43841103 0.55840033 0.18991154 0.00001529 0.00007034 0.00003748
0.33867213 0.59882027 0.84359926 0.00005517 -0.00004273 -0.00007382
0.72322404 0.53296769 0.50245273 0.00005407 -0.00007729 0.00014723
0.50896358 0.76570451 0.64777964 -0.00007433 0.00005128 -0.00014587
0.41227198 0.23013014 0.72804493 -0.00006705 -0.00020586 0.00006125
0.74726218 0.44153333 0.61427522 -0.00002282 -0.00005913 0.00012137
0.32982850 0.38025254 0.47534004 -0.00000270 0.00006534 0.00011003
0.57297349 0.47136691 0.04545457 0.00003630 0.00001226 -0.00016980
0.40561017 0.71912819 0.75602674 0.00010621 -0.00008393 0.00006107
0.49175546 0.62531114 0.05216273 -0.00006735 0.00020968 -0.00014063
0.48871815 0.61056566 0.12763986 -0.00005066 0.00016933 0.00003618
0.48965454 0.31425995 0.42773920 -0.00010977 -0.00001659 0.00011562
0.62858152 0.50907958 0.06931180 0.00024252 0.00003664 -0.00003904
0.68586230 0.68498737 0.55247170 0.00009744 0.00016292 -0.00011313
0.47166005 0.74259722 0.69308591 0.00001166 -0.00012403 0.00001987
0.33269396 0.41377974 0.45218918 0.00005959 0.00002966 0.00008213
0.70452684 0.63205743 0.72773314 -0.00007047 -0.00007948 0.00003316
0.53110445 0.70009094 0.49272728 -0.00001363 -0.00007801 0.00005972
0.63476151 0.55635577 0.32633582 0.00020714 0.00012666 -0.00011278
0.40544745 0.56839395 0.04545457 -0.00006822 0.00002757 -0.00022714
0.70222956 0.55932939 0.50846726 -0.00010115 -0.00001547 0.00006529
0.69873315 0.54102582 0.86844015 0.00014496 0.00014991 -0.00008800
0.60142064 0.57662392 0.90305185 -0.00003575 0.00000390 -0.00009890
0.52188724 0.62728196 0.30805945 0.00012557 0.00015546 -0.00003007
0.40311110 0.44766331 0.25098598 -0.00010501 -0.00016611 -0.00009827
0.72949499 0.42042243 0.56893075 -0.00008465 0.00006760 -0.00006687
0.72006583 0.38331252 0.78071213 -0.00009045 -0.00007837 0.00016295
0.69656414 0.29917818 0.68621689 0.00017614 -0.00005370 -0.00013764
0.45123279 0.75256264 0.72543043 0.00011679 -0.00006161 0.00016390
0.35581937 0.61729115 0.42773378 -0.00004322 -0.00007926 -0.00009654
0.26252958 0.44568241 0.79088664 0.00002966 0.00006537 0.00014456
0.69895774 0.31617358 0.72896498 -0.00004285 -0.00010584 0.00017108
0.58604348 0.48915684 0.24753416 -0.00002937 0.00008592 -0.00005202
0.59646887 0.50410956 0.30686584 -0.00007854 -0.00003513 0.00007363
0.44920737 0.74731451 0.53253627 -0.00001965 0.00023103 0.00006194
0.67063779 0.56745392 0.88988465 0.00011238 0.00020132 0.00002159
0.24120961 0.39784250 0.58533162 -0.00023185 -0.00007422 -0.00000624
0.68771780 0.43592244 0.41435018 0.00021609 -0.00010631 -0.00000823
0.47200277 0.71670818 0.50332814 -0.00005168 -0.00008251 -0.00009633
0.50260729 0.58886027 0.04545457 0.00002200 0.00002148 -0.00016947
0.60721976 0.56614304 0.36367118 -0.00010611 -0.00002689 0.00005121
0.58455163 0.69621730 0.45819828 0.00020132 0.00011791 0.00005476
0.45596462 0.37368438 0.06361000 -0.00004218 -0.00023868 -0.00003600
0.68404049 0.53902400 0.89777368 0.00011961 -0.00005105 0.00022377
0.43834829 0.40911338 0.30630678 0.00007439 0.00001069 -0.00000769
0.42349285 0.41988426 0.17117614 -0.00008897 -0.00006445 0.00016586
0.47836730 0.46426508 0.04545457 -0.00002368 0.00001067 -0.00014366
0.33591303 0.63867110 0.46013460 -0.00010444 0.00018367 0.00008634
0.55979073 0.22199105 0.60948342 0.00006305 -0.00023022 -0.00002759
0.64933783 0.68995368 0.76099128 -0.00009655 0.00004748 -0.00013498
0.54096985 0.39113343 0.13502073 0.00006120 -0.00014674 0.00005458
0.43916827 0.74445361 0.73350137 0.00010076 -0.00006363 0.00013371
0.47773364 0.52780133 0.95348352 -0.00005542 -0.00002604 0.00020048
0.40218747 0.42720878 0.11395897 -0.00017288 -0.00009606 0.00003799
0.32151306 0.70677096 0.60262704 -0.00007210 0.00016941 0.00017230
0.61064887 0.39863434 0.33308578 0.00013410 0.00001325 -0.00010741
0.70769864 0.65482467 0.55157536 0.00019212 0.00006803 0.00006295
0.26880863 0.65850377 0.63427061 -0.00014796 0.00014908 0.00008373
0.57947433 0.68134373 0.46619189 0.00007802 -0.00005851 0.00011254
0.39689112 0.41635156 0.06770272 -0.00019490 -0.00015442 -0.00001673
0.68740869 0.47672325 0.42154378 -0.00001020 0.00010260 -0.00010645
0.55262077 0.56921214 0.22656783 -0.00005604 0.00011565 -0.00005816
0.39945835 0.63836288 0.38778114 -0.00009576 -0.00003933 -0.00013666
0.55679625 0.46702597 0.04545457 0.00000641 0.00000970 -0.00015905
0.47586548 0.56020671 0.04545457 0.00003668 0.00000834 -0.00015311
0.62206066 0.54113489 0.30419040 0.00004204 0.00016476 -0.00011647
0.49467728 0.59007031 0.19804062 -0.00003060 0.00014648 -0.00007058
0.32342488 0.27766728 0.65358514 -0.00003559 -0.00019249 -0.00014157
0.33036944 0.67603099 0.61090249 0.00004712 -0.00009209 0.00008967
0.53559446 0.50264776 0.94484717 0.00004954 0.00004422 0.00007883
0.48404458 0.55515581 0.94036728 0.00011330 0.00006104 0.00007905
0.56496167 0.57737029 0.24357688 0.00014868 0.00013329 -0.00009646
0.37228295 0.69072008 0.76797217 0.00005144 -0.00007122 -0.00005988
0.48418090 0.44023150 0.94942546 -0.00012513 -0.00003971 0.00018837
0.35349482 0.71126825 0.55905259 -0.00008911 0.00005357 -0.00017369
0.34200484 0.35161352 0.45389190 0.00008132 -0.00009187 -0.00012112
0.40539563 0.58546305 0.04934639 -0.00017683 0.00020378 -0.00017043
0.54306263 0.40261340 0.17401339 0.00006470 -0.00004915 0.00009551
0.47891912 0.64890289 0.33713305 0.00001658 0.00023862 -0.00009107
0.48588365 0.71262729 0.51911539 0.00001255 -0.00009434 0.00004833
0.55808532 0.71026456 0.48458824 0.00007078 0.00004882 0.00013521
0.45141187 0.39259616 0.13242894 -0.00007591 -0.00016983 0.00001390
0.46277282 0.43643150 0.22936329 -0.00002118 0.00005202 0.00000728
0.42046195 0.71982914 0.56285983 0.00004432 -0.00005644 0.00009473
0.33786124 0.39222977 0.42928651 0.00006506 -0.00007978 -0.00011111
0.48320907 0.42019063 0.94932997 -0.00004138 -0.00001460 0.00022934
0.52821267 0.50654864 0.94822276 0.00007918 -0.00000508 0.00007510
0.45022097 0.50993317 0.17474794 0.00006771 -0.00003496 0.00004552
0.33119577 0.50135225 0.36603484 -0.00021677 0.00004470 -0.00002862
0.43897283 0.65427285 0.36362934 -0.00011389 0.00018194 -0.00009854
0.53903717 0.55890125 0.04545457 0.00000480 0.00004190 -0.00015559
0.74489766 0.38515252 0.57484984 0.00017405 -0.00012303 0.00007698
0.25415686 0.41992155 0.56066531 0.00000725 -0.00010064 -0.00013009
0.63227516 0.43227789 0.37738934 -0.00002603 0.00010912 -0.00003416
0.28868133 0.63354838 0.64614058 0.00008531 -0.00002009 0.00011389
0.45221281 0.37809891 0.36003575 0.00010606 0.00007321 0.00004598
0.64344788 0.70927817 0.79456753 0.00009009 0.00021686 0.00004321
0.73818499 0.56880307 0.67808688 -0.00009564 -0.00003157 0.00005679
0.54421347 0.49095139 0.94839907 0.00005102 0.00008382 0.00017058
0.31589583 0.36953619 0.85787928 -0.00015118 -0.00004593 0.00014527
0.31479672 0.66702378 0.59283525 0.00001244 -0.00008355 -0.00009113
0.67954415 0.46049327 0.40762472 0.00004920 0.00012677 -0.00011467
0.28460497 0.67383558 0.60651255 -0.00020013 0.00007867 -0.00009309
0.32962942 0.68969190 0.61432064 0.00007631 0.00001402 0.00013227
0.60479885 0.54044586 0.31160039 -0.00009414 0.00008172 -0.00003703
0.71033496 0.64328742 0.70369226 -0.00008092 0.00003930 -0.00007403
0.74948221 0.43405968 0.57204163 0.00001901 0.00006877 -0.00013545
0.49884453 0.70967275 0.51072818 0.00000067 -0.00008854 0.00007200
0.47746733 0.44449058 0.93986815 -0.00014195 0.00001119 0.00000671
0.63923240 0.56768399 0.35813847 0.00020236 -0.00000578 0.00004509
0.33488578 0.52717680 0.88266373 -0.00000612 -0.00006133 -0.00011208
0.43405649 0.63643289 0.36139661 -0.00013555 -0.00000318 -0.00007487
0.56927168 0.46396512 0.04545457 -0.00000396 -0.00001330 -0.00016836
0.56922710 0.45272967 0.94819272 0.00001536 -0.00008698 0.00023375
0.63227785 0.57353944 0.33784488 0.00012766 0.00017429 -0.00013262
0.70884049 0.50353593 0.83054751 -0.00001314 0.00010602 -0.00009782
0.58463889 0.26385459 0.63217700 -0.00002493 0.00012017 -0.00002025
0.43862554 0.63131928 0.39711386 0.00005843 -0.00005260 0.00006030
0.61127520 0.29424271 0.50600541 -0.00006132 -0.00010778 0.00013985
0.60195428 0.45280418 0.14825709 0.00013148 -0.00010900 -0.00005775
0.34858030 0.53093040 0.92036098 0.00005683 0.00007486 0.00017022
0.53938442 0.56032306 0.92340362 -0.00002363 0.00007686 -0.00009777
0.56429350 0.71028006 0.47839278 0.00011725 0.00010669 0.00012765
0.60057706 0.44329512 0.13035622 0.00015764 -0.00006383 0.00007054
0.57686889 0.55970848 0.94554454 0.00008108 -0.00004188 0.00020020
0.61214978 0.74901724 0.59856707 0.00006799 0.00017899 -0.00015547
0.40963289 0.24148555 0.74201858 -0.00010716 -0.00007912 0.00014003
0.26852226 0.42767879 0.56746441 0.00009837 -0.00001129 -0.00003511
0.52565449 0.25579005 0.78910577 0.00011139 -0.00005265 -0.00011965
0.47724548 0.40608701 0.94699544 -0.00008949 0.00000451 0.00020251
0.49780455 0.49839592 0.95454538 -0.00001074 -0.00003464 0.00016067
0.62141609 0.70129460 0.78464031 -0.00007811 0.00002992 -0.00012760
0.52900988 0.49309775 0.04545457 -0.00003087 0.00002262 -0.00014233
0.71010315 0.48077506 0.43227285 0.00014839 0.00004919 -0.00016440
0.38801202 0.70256913 0.77275485 0.00009637 -0.00007326 0.00001864
0.52333808 0.69933188 0.48283547 -0.00005691 -0.00008058 -0.00001915
0.33387122 0.35246712 0.49247640 -0.00009763 0.00005302 0.00010776
0.35943753 0.34589896 0.48942637 0.00008800 0.00004326 0.00006703
0.70788592 0.59045845 0.49737731 -0.00010525 0.00010376 -0.00013186
0.72919220 0.57716209 0.52157086 0.00016087 -0.00006009 0.00017083
0.73153579 0.42053699 0.59582978 -0.00009474 -0.00002069 0.00009803
0.72119588 0.45292237 0.79272115 -0.00004063 0.00006380 -0.00007404
0.30314493 0.38178527 0.80739212 0.00005793 -0.00008907 -0.00006592
0.36868572 0.67796737 0.79832482 0.00010559 -0.00006398 0.00001686
0.72763127 0.37011346 0.72954041 0.00005085 0.00006501 -0.00011313
0.61976063 0.62401474 0.37796298 0.00004377 0.00015160 -0.00017153
0.36615479 0.32786810 0.51009357 0.00004671 0.00007277 0.00007079
0.34153941 0.60895842 0.46967009 0.00003842 -0.00006764 0.00008168
0.54775983 0.45519057 0.93381548 -0.00005049 -0.00010146 -0.00003182
0.47368824 0.61580020 0.33745486 -0.00007651 -0.00011418 0.00001476
0.42220742 0.23021194 0.74077857 -0.00012213 -0.00017642 0.00006785
0.61304063 0.52327859 0.33431488 -0.00004463 -0.00005320 0.00007209
0.42164832 0.24892463 0.53388447 -0.00006028 -0.00018730 -0.00008263
0.52208084 0.60075206 0.04545457 0.00003140 -0.00000248 -0.00017992
0.43333194 0.55676216 0.04545457 -0.00000380 0.00005476 -0.00016902
0.72228044 0.64794564 0.70197684 0.00000399 0.00011951 -0.00010889
0.30691582 0.60714024 0.45495918 -0.00015642 -0.00001159 -0.00015674
0.47735819 0.36998165 0.93283004 0.00013257 -0.00013976 0.00012806
0.24791870 0.46963051 0.53668624 -0.00006132 -0.00011649 -0.00016573
0.70975775 0.63315022 0.55358535 0.00008858 0.00001947 0.00016081
0.57709253 0.55604672 0.17301250 -0.00001296 0.00005266 0.00010193
0.63777691 0.57222849 0.36745936 0.00016359 -0.00003252 0.00010840
0.58509797 0.40503338 0.09257265 0.00014158 -0.00016397 0.00001582
0.59466344 0.71527362 0.82975113 -0.00000887 0.00026872 0.00000025
0.57412529 0.55465305 0.91351819 0.00004566 -0.00006340 -0.00011064
0.57561797 0.32729810 0.85038930 -0.00003959 0.00007660 -0.00007355
0.25701869 0.63316292 0.65728784 -0.00007887 0.00018080 0.00014227
0.47552460 0.43441060 0.92895639 -0.00009227 0.00001418 -0.00000777
0.60441798 0.36619347 0.87599832 -0.00000801 0.00004970 -0.00011634
0.43068922 0.24347100 0.54057080 -0.00000800 -0.00021308 -0.00007684
0.76142395 0.60393935 0.68483323 0.00022910 0.00008158 -0.00003719
0.61680520 0.52343404 0.04545457 -0.00009715 0.00001838 -0.00021793
0.33673486 0.67591375 0.78854936 -0.00013083 -0.00008988 -0.00015285
0.43440104 0.57096577 0.17795521 -0.00001055 0.00011174 0.00006773
0.34185666 0.70068550 0.78937668 -0.00022323 0.00015949 0.00001667
0.58907527 0.43108514 0.90878820 -0.00002950 -0.00000235 -0.00008724
0.25303411 0.43129605 0.75637853 0.00001697 -0.00011690 -0.00008315
0.64141876 0.69013917 0.58882529 -0.00007470 -0.00006163 0.00003927
0.60544616 0.45043147 0.92213458 0.00014425 0.00009780 -0.00000780
0.46528915 0.65456194 0.35588664 0.00002237 0.00022233 -0.00004749
0.59892702 0.68109465 0.81781662 -0.00003321 -0.00014048 -0.00005656
0.56511438 0.71470457 0.46858278 0.00011560 0.00021408 0.00002153
0.34382850 0.50202227 0.92423820 -0.00017461 -0.00005472 0.00015358
0.67794144 0.69737184 0.56259346 0.00013063 0.00017153 -0.00008645
0.44775644 0.27165729 0.54669988 0.00004416 0.00008106 -0.00001731
0.59256250 0.55920947 0.90988100 0.00000346 -0.00005384 -0.00007911
0.35032302 0.48894683 0.91661829 -0.00015606 -0.00013874 -0.00001957
0.45808372 0.32374448 0.39011201 -0.00013205 -0.00016788 0.00001489
0.52595448 0.68831736 0.85158378 -0.00008072 0.00001134 -0.00007464
0.63568330 0.70768821 0.57090348 -0.00006693 0.00001633 -0.00011367
0.48920360 0.52574128 0.95215905 0.00007419 0.00005838 0.00014006
0.56349802 0.60869843 0.06722271 0.00009192 0.00020842 -0.00000531
0.55360079 0.76328266 0.62407881 -0.00007058 0.00007820 -0.00013027
0.71058226 0.37181434 0.57384527 -0.00005921 -0.00003433 0.00011494
0.35743389 0.29130545 0.68304962 0.00006430 0.00008576 0.00003809
0.57134897 0.45287240 0.91480738 -0.00002098 -0.00003226 -0.00009338
0.57300252 0.48100051 0.26414227 -0.00005773 0.00001528 0.00001282
0.49135181 0.36743349 0.07446179 0.00002492 -0.00023359 0.00002690
0.39503840 0.42190427 0.04545457 -0.00012405 -0.00015360 -0.00024501
0.58995616 0.73658454 0.63770878 0.00002889 -0.00008139 0.00009806
0.55256170 0.25552097 0.61848795 -0.00005783 0.00010415 0.00002246
0.38333839 0.52849770 0.11029261 -0.00019029 0.00005498 0.00004548
0.59247160 0.58383942 0.08377085 0.00015445 0.00015496 0.00002414
0.49063542 0.23553921 0.76802582 0.00009660 -0.00019262 -0.00011943
0.60856521 0.44799510 0.11205078 0.00017102 -0.00008214 0.00005064
0.71080226 0.31197450 0.70195866 0.00021232 -0.00006104 -0.00005024
0.36912841 0.28265727 0.67731142 0.00005121 0.00008541 -0.00006074
0.38663292 0.52839589 0.12131985 -0.00019086 0.00003048 0.00003979
0.73412222 0.58211303 0.68947959 -0.00011419 -0.00005833 0.00006248
0.53225899 0.38604888 0.12773712 0.00005329 -0.00017022 0.00003404
0.44765738 0.37371710 0.93448359 -0.00008668 0.00002993 0.00019294
0.38561475 0.25866914 0.72513139 -0.00005830 0.00004651 0.00018496
0.67556870 0.55112857 0.90425825 0.00020983 -0.00002444 0.00016045
0.24905232 0.48417598 0.75693852 0.00006074 0.00006658 0.00016792
0.59975344 0.72640818 0.59681618 -0.00008375 -0.00002073 -0.00009447
0.57537073 0.23391286 0.63969964 -0.00004194 -0.00009279 0.00019958
0.68095410 0.44042787 0.43670830 0.00000154 -0.00009389 0.00011809
0.71881771 0.40563428 0.79555035 -0.00011170 -0.00007289 0.00009598
0.33694670 0.57870758 0.89182734 0.00012919 0.00010196 0.00014986
0.62706429 0.50255954 0.08161268 0.00022185 -0.00000504 0.00006231
0.41738015 0.41980064 0.27233046 -0.00004438 -0.00014130 -0.00009644
0.52740353 0.61483657 0.10472444 0.00005706 0.00019158 0.00003742
0.38433021 0.53856224 0.10291444 -0.00018237 0.00009580 0.00004078
0.28111681 0.33540991 0.64612699 -0.00013122 0.00010486 0.00016434
0.57265347 0.43657422 0.21117695 0.00013800 -0.00006743 -0.00006029
0.53378630 0.37506437 0.09039266 0.00009291 -0.00019709 0.00002528
0.74340856 0.38191620 0.56321353 0.00022640 -0.00008482 -0.00002332
0.39229929 0.56956214 0.06758635 -0.00020105 0.00014942 -0.00004323
0.45335010 0.43557152 0.22440238 -0.00004230 0.00004783 0.00002641
0.39863110 0.25912550 0.53814632 -0.00009087 -0.00022486 0.00007932
0.39519292 0.72117186 0.77200848 0.00010731 0.00002737 0.00013020
0.48983273 0.66261196 0.87637472 -0.00005548 -0.00003742 -0.00010383
0.42815012 0.25440642 0.75366306 -0.00008308 0.00008260 0.00009408
0.61828244 0.64130014 0.42347741 0.00014587 -0.00000376 0.00015450
0.71313864 0.64371473 0.53567082 0.00017887 0.00015317 -0.00006094
0.53837264 0.52185136 0.94713175 0.00013448 -0.00009224 0.00007974
0.67269868 0.67309552 0.78289944 0.00010629 -0.00008847 0.00014392
0.45180824 0.46269509 0.04545457 0.00002140 -0.00000723 -0.00015252
0.35894844 0.69470006 0.59299254 0.00005626 -0.00009704 0.00008400
0.42111194 0.28605455 0.53811717 0.00005892 0.00006449 0.00001069
0.73547316 0.43409058 0.81877118 0.00010399 -0.00012455 0.00015860
0.31182945 0.59435117 0.45938462 -0.00000508 -0.00011628 -0.00010705
0.42073196 0.39397979 0.29741403 -0.00000525 -0.00018875 -0.00008556
0.61475885 0.30271634 0.47045004 0.00010792 0.00004670 -0.00014679
0.67197323 0.69587457 0.75657398 -0.00001807 0.00020156 -0.00013107
0.76646036 0.47404233 0.59512615 0.00004014 0.00012099 -0.00015420
0.48297092 0.33567989 0.41637468 -0.00002615 0.00008354 0.00008427
0.34553027 0.57245940 0.86973917 0.00009256 0.00000231 -0.00003857
0.71553314 0.31708267 0.71244317 0.00018664 -0.00010824 -0.00002238
0.65136236 0.30721179 0.52661359 -0.00001049 -0.00011472 0.00013465
0.28160316 0.32291085 0.64654785 -0.00021408 -0.00008646 0.00015259
0.73351490 0.57778758 0.51399451 0.00025103 0.00000218 0.00004396
0.56260806 0.30442813 0.47765550 -0.00004343 0.00003966 0.00011011
0.27334136 0.43006516 0.76713759 0.00007295 -0.00001520 -0.00005941
0.70155412 0.56655031 0.51260906 -0.00008986 -0.00003264 0.00007251
0.49309093 0.49488592 0.91873455 -0.00000818 -0.00001954 -0.00014448
0.53914899 0.56336308 0.27023682 -0.00004528 -0.00001798 0.00002123
0.56243438 0.41832700 0.17475705 0.00003430 -0.00000980 0.00008859
0.40748745 0.40390977 0.06539908 -0.00019815 -0.00016991 0.00001939
0.30087858 0.40046340 0.83828837 -0.00003670 0.00010158 0.00013272
0.59210253 0.35256988 0.86844379 -0.00002772 0.00003996 -0.00007165
0.73179680 0.64733011 0.72992045 0.00019301 0.00006264 0.00011413
0.46679914 0.32511264 0.37294844 0.00002277 -0.00014854 -0.00016373
0.52455449 0.44611150 0.17946339 -0.00005578 0.00004717 0.00003866
0.51898992 0.38710979 0.28968224 -0.00012740 -0.00007416 0.00010347
0.77382392 0.53806126 0.66374421 0.00016796 -0.00011319 0.00017334
0.48907909 0.66968191 0.91362643 0.00009355 0.00008765 0.00024666
0.58669436 0.48490143 0.04545457 0.00000592 -0.00001656 -0.00018029
0.40757927 0.47728235 0.22175965 -0.00009582 -0.00008363 -0.00009542
0.46112463 0.58867389 0.91104460 0.00004508 -0.00000325 -0.00009675
0.52617991 0.48674050 0.95402628 0.00005173 0.00001308 0.00019046
0.40053383 0.75009179 0.72198409 -0.00014194 0.00010830 -0.00013837
0.32138580 0.40492976 0.41762653 -0.00010231 -0.00020873 -0.00014172
0.69838774 0.65347379 0.75673765 0.00001524 -0.00010761 0.00012944
0.47176367 0.56090486 0.91713452 0.00003697 0.00002502 -0.00009264
0.40308291 0.50212139 0.04545457 0.00000395 -0.00001223 -0.00018047
0.57362890 0.29143545 0.86606103 0.00003837 -0.00021429 0.00018949
0.25508046 0.46976870 0.73378861 0.00007418 -0.00002605 -0.00005910
0.48928365 0.43118608 0.24041145 0.00001336 0.00005695 -0.00000560
0.38712293 0.27222458 0.53818810 -0.00013293 -0.00006348 0.00014434
0.60433429 0.67413831 0.42812741 0.00019515 0.00021392 0.00004241
0.55904257 0.45820332 0.17726612 0.00003037 0.00005285 0.00004380
0.58811069 0.29802907 0.86111015 0.00018666 -0.00016175 0.00001401
0.61276066 0.71660548 0.58955067 -0.00006282 -0.00007836 -0.00010109
0.53473175 0.54326129 0.95130354 -0.00002966 0.00006859 0.00022427
0.57933801 0.58879119 0.10169992 0.00012991 0.00014767 0.00002506
0.51037449 0.38665706 0.27542409 -0.00011222 -0.00014577 0.00004008
0.59149611 0.50395864 0.29928949 -0.00010630 0.00000178 0.00003123
0.50205636 0.59832120 0.30560949 -0.00004866 -0.00007634 -0.00000415
0.25156775 0.54715949 0.51865178 -0.00025487 0.00008569 -0.00002350
0.35695848 0.53168225 0.35342029 -0.00005105 0.00011219 0.00011452
0.66007149 0.30421087 0.51809537 0.00011216 -0.00018788 0.00006298
0.70432591 0.45653784 0.44237375 0.00014273 -0.00012862 0.00007457
0.33892393 0.31370720 0.49121273 -0.00020445 -0.00016010 0.00005351
0.66595507 0.70209002 0.55993080 0.00000699 0.00014132 -0.00015313
0.55109626 0.46635965 0.91795731 -0.00004334 -0.00002613 -0.00010662
0.36948842 0.50324869 0.33784306 0.00006059 -0.00007571 -0.00005237
0.25279593 0.63585109 0.64677787 -0.00021051 0.00011847 0.00007261
0.46727914 0.61623842 0.04545457 -0.00004338 0.00009128 -0.00027569
0.39888290 0.54176217 0.32642400 0.00011457 0.00000340 0.00005630
0.57694346 0.30919725 0.45084283 0.00008667 0.00006368 -0.00011180
0.69855595 0.37315345 0.53653175 -0.00003530 0.00008156 -0.00007540
0.55323440 0.54532218 0.94982904 0.00005845 -0.00006094 0.00021151
0.27568591 0.57692397 0.48238546 -0.00016435 -0.00002030 -0.00016851
0.75334853 0.61235118 0.67915416 0.00014979 0.00014881 -0.00014707
0.47044185 0.62309021 0.06059455 -0.00006441 0.00023372 0.00001142
0.36060119 0.64462197 0.41839653 -0.00017440 0.00012173 -0.00016418
0.59821981 0.46178234 0.24414870 0.00020495 -0.00004245 -0.00005222
0.34972209 0.36044165 0.88290191 -0.00012989 -0.00000844 0.00017994
0.56285530 0.28970090 0.86380196 -0.00002592 -0.00015192 0.00019699
0.43376011 0.75645447 0.69422954 -0.00010670 -0.00002393 -0.00015547
0.55987078 0.31269538 0.86701107 -0.00012109 0.00001146 0.00010453
0.39621836 0.42628518 0.09552900 -0.00018458 -0.00011086 0.00002544
0.43553466 0.48583320 0.22924964 0.00005995 -0.00002449 -0.00001193
0.29291314 0.68315190 0.60078067 -0.00021034 0.00006264 -0.00010078
0.59180433 0.40567613 0.05031364 0.00019617 -0.00016325 -0.00019478
0.61404157 0.50813496 0.04545457 -0.00001031 0.00002238 -0.00022916
0.42408741 0.53818309 0.20824425 0.00000019 0.00008690 0.00007301
0.27574497 0.58828211 0.50436997 -0.00012453 0.00014184 0.00005823
0.67737418 0.52772224 0.85694742 -0.00008179 -0.00000051 -0.00007634
0.68199873 0.51212496 0.87910920 -0.00004356 -0.00014219 0.00006518
0.31373399 0.69504189 0.61533153 -0.00005768 0.00016058 0.00012980
0.24415597 0.38553527 0.59320706 -0.00021467 -0.00012345 -0.00003878
0.68521142 0.33083537 0.69998050 -0.00007062 0.00005348 -0.00005962
0.62386519 0.40472519 0.92121732 0.00021832 0.00001810 0.00013126
0.31858855 0.62696749 0.85845381 -0.00019766 0.00008141 0.00014087
0.67450601 0.30672994 0.67431962 0.00000289 0.00008108 -0.00007316
0.32364944 0.59307390 0.46488914 0.00004602 -0.00008196 -0.00003652
0.62066245 0.53232765 0.34387669 -0.00001793 -0.00007816 0.00007950
0.25301775 0.50133592 0.73489136 0.00012453 0.00005280 0.00004284
0.67539138 0.31825450 0.68749416 -0.00005883 0.00005289 -0.00006446
0.42235830 0.36411801 0.35209486 -0.00019116 -0.00008240 0.00008685
0.45002642 0.39010432 0.04545457 0.00003463 0.00005733 -0.00023041
0.55167443 0.68143827 0.46474826 -0.00007677 -0.00007977 0.00002762
0.39062202 0.42675516 0.07616179 -0.00017031 -0.00015983 0.00003411
0.60740066 0.45875144 0.13053530 0.00016398 -0.00005592 0.00005694
0.57370806 0.37744346 0.32905582 -0.00005584 -0.00016593 0.00004602
0.33776483 0.59551209 0.88009101 0.00011421 0.00007702 0.00014369
0.62127155 0.49930316 0.30555585 0.00012297 -0.00012210 0.00010343
0.22922872 0.56314397 0.70006323 -0.00010362 0.00018316 0.00015581
0.69084954 0.67912734 0.57032347 0.00016261 0.00006613 0.00008847
0.41501015 0.39169523 0.33965212 -0.00012277 0.00008069 0.00005742
0.56443346 0.28610003 0.82298660 0.00012580 0.00001261 -0.00011456
0.67873323 0.69875640 0.57102072 0.00016665 0.00014115 0.00003259
0.44920644 0.65843922 0.37348935 0.00004633 0.00020649 -0.00000304
0.44644463 0.62305021 0.36628845 -0.00003629 -0.00008583 -0.00001671
0.46712002 0.77773809 0.69373506 -0.00001874 0.00030164 0.00000131
0.45143372 0.64297289 0.34620395 -0.00014257 0.00004813 -0.00011053
0.43055284 0.40532702 0.13292621 -0.00010066 -0.00014763 0.00003273
0.48024094 0.33774900 0.37251845 0.00009397 -0.00002421 -0.00011557
0.47546363 0.35233897 0.37130934 0.00009689 0.00004582 -0.00005507
0.32275760 0.60928935 0.48722181 0.00007323 0.00001237 0.00009077
0.68964499 0.60942298 0.52976173 -0.00014612 -0.00003571 0.00001108
0.67626327 0.32321265 0.54143810 -0.00000941 -0.00012855 0.00012698
0.41638744 0.36311436 0.91882002 -0.00009320 0.00009117 0.00015211
0.62532878 0.30944452 0.47755092 0.00008959 0.00005492 -0.00013365
0.37593025 0.28436911 0.50052184 -0.00000092 -0.00016854 -0.00016061
0.62383974 0.24875644 0.66458052 -0.00001885 -0.00013346 0.00021864
0.40931925 0.33923444 0.90522456 -0.00006315 -0.00021617 0.00009823
0.25732866 0.48761505 0.52688444 0.00000343 -0.00005588 -0.00015214
0.65993237 0.53672767 0.87368011 -0.00006294 -0.00006331 -0.00009200
0.47968000 0.42018336 0.20373333 0.00006192 -0.00000097 -0.00005238
0.27343589 0.50211138 0.54479170 0.00008244 -0.00003386 0.00004812
0.70101863 0.66620284 0.55846626 0.00016909 0.00008348 0.00008608
0.56096256 0.42868605 0.19270152 0.00008824 -0.00004292 -0.00001279
0.69569504 0.62598747 0.55499083 -0.00004775 -0.00003640 0.00012654
0.55392444 0.22134469 0.60384065 0.00008049 -0.00022843 -0.00003560
0.44276920 0.58375210 0.04545457 -0.00004491 0.00004356 -0.00018738
0.61693883 0.54462945 0.08518630 0.00018541 0.00010972 0.00001076
0.40404928 0.65345740 0.42126289 0.00006130 0.00014098 0.00012363
0.60516614 0.33207625 0.89386731 0.00011786 -0.00016425 0.00017532
0.53775901 0.67183375 0.86017829 0.00004574 -0.00009627 -0.00005127
0.57395709 0.59403300 0.04545457 0.00003126 0.00003412 -0.00020305
0.34797484 0.34355715 0.50064361 0.00001228 0.00007941 0.00009322
0.41905650 0.40406156 0.10350173 -0.00011965 -0.00016181 0.00004905
0.64091241 0.54627764 0.90709096 -0.00003542 -0.00011805 0.00007684
0.50201547 0.62587750 0.05412364 0.00002614 0.00023915 0.00002313
0.59664798 0.58144212 0.93662089 0.00006216 0.00015100 0.00019349
0.73838127 0.44921330 0.60382068 -0.00009383 0.00002606 0.00003036
0.71339405 0.41548702 0.77695215 -0.00007603 0.00001967 -0.00002701
0.43461922 0.26078460 0.74876857 0.00000190 0.00011166 0.00004189
0.54857081 0.71394187 0.45455372 -0.00009418 0.00014610 -0.00018366
0.39924109 0.34633443 0.90910095 -0.00009025 -0.00012280 0.00017885
0.61799610 0.54632676 0.04568819 0.00015548 0.00003085 -0.00022155
0.27449134 0.60599935 0.64267969 0.00008564 -0.00006171 -0.00004411
0.36864388 0.29066637 0.52796358 -0.00011979 -0.00002347 0.00013417
0.42755741 0.34118989 0.89605737 0.00004363 -0.00015959 -0.00007328
0.61830425 0.50459504 0.27545500 0.00022437 0.00002826 -0.00008393
0.25501868 0.55638218 0.67329323 0.00007367 -0.00003512 -0.00005092
0.73087496 0.65204829 0.71305406 0.00013081 0.00015819 -0.00006788
0.55799800 0.61085021 0.04545457 0.00017281 0.00012826 -0.00016120
0.71286041 0.39741158 0.78118944 -0.00010824 -0.00003174 0.00006548
0.66448510 0.42936698 0.38438478 0.00014760 0.00002113 -0.00016034
0.46068642 0.26594642 0.55162531 0.00004679 0.00007816 -0.00002312
0.46683186 0.25306100 0.54598624 0.00006329 0.00004312 -0.00010998
0.49343365 0.41677520 0.17421339 -0.00002561 0.00003448 0.00006490
0.40493560 0.50562954 0.17715339 -0.00002109 -0.00003027 0.00009544
0.54026353 0.46065056 0.17423794 0.00000051 0.00004462 0.00007612
0.71160680 0.62709022 0.72798222 -0.00007363 -0.00006899 0.00008448
0.71675771 0.47843689 0.45948187 0.00017433 -0.00015155 0.00007100
0.62308061 0.70462549 0.59081072 -0.00005228 -0.00008777 -0.00001804
0.51820266 0.38819981 0.04545457 -0.00000356 0.00002702 -0.00021835
0.52019089 0.38234708 0.27224591 -0.00000369 -0.00022724 -0.00004335
0.29018497 0.36580893 0.61932248 0.00011113 0.00005133 0.00002111
0.64072603 0.41137701 0.36156026 0.00016889 -0.00004226 -0.00015237
0.47732732 0.22629285 0.57945889 -0.00007435 -0.00020298 0.00008167
0.32795033 0.48076141 0.36860207 -0.00020337 -0.00001972 -0.00009936
0.24727596 0.42872241 0.76208669 -0.00011855 -0.00011727 -0.00006736
0.23783326 0.60183573 0.67184508 -0.00022656 0.00007276 0.00004978
0.68653321 0.61796385 0.53578174 -0.00012982 -0.00002782 0.00003657
0.48735365 0.43273970 0.22487238 0.00002699 0.00004229 -0.00001467
0.57051528 0.38284707 0.30072403 0.00016164 -0.00011953 -0.00008511
0.69188774 0.68740553 0.76002580 0.00020021 0.00015332 0.00008308
0.50075543 0.54890221 0.17620429 -0.00001469 -0.00005339 0.00007454
0.45008099 0.64325380 0.91340089 -0.00024963 0.00008979 0.00004509
0.59391707 0.66993648 0.45338646 0.00008818 -0.00005193 0.00014639
0.47770369 0.25995642 0.75791854 0.00003992 0.00011205 -0.00007204
0.60737157 0.46863329 0.14843617 0.00017206 -0.00002635 -0.00000312
0.70644587 0.67352742 0.75410491 0.00019821 0.00011920 0.00011455
0.32876214 0.36198074 0.83216751 0.00005245 -0.00010791 -0.00010111
0.45975187 0.76803720 0.71473408 0.00009624 0.00017199 0.00013905
0.24074689 0.49485776 0.53257996 -0.00025672 0.00004627 -0.00008067
0.61393154 0.41001338 0.89850551 0.00003960 0.00002261 -0.00010280
0.70746046 0.37097254 0.53359449 0.00001378 0.00008844 -0.00013205
0.46809641 0.75547540 0.67290145 -0.00009587 -0.00008119 -0.00011727
0.58632255 0.42495427 0.13685529 0.00013190 -0.00011119 0.00001254
0.53043538 0.61552024 0.28151682 0.00004847 0.00018748 -0.00014260
0.57173705 0.28355637 0.83258933 0.00016654 -0.00006066 -0.00010192
0.65991873 0.34453169 0.53082812 -0.00007779 0.00008490 0.00003599
0.42027196 0.24587463 0.70768315 0.00009816 -0.00003440 -0.00008635
0.22623146 0.55557674 0.70321685 -0.00017895 0.00011938 0.00012840
0.52133173 0.46965599 0.04545457 0.00003401 0.00000434 -0.00014395
0.70402414 0.51891953 0.88028556 0.00014248 -0.00003795 0.00021652
0.32700032 0.40038794 0.46202281 0.00001065 0.00004960 0.00009958
0.57234436 0.29344362 0.44403100 0.00015627 -0.00010448 -0.00015986
0.51010364 0.43404153 0.92959189 0.00010279 -0.00005604 -0.00005116
0.41977471 0.54610491 0.30133039 0.00005171 -0.00003165 0.00003543
0.54439628 0.61026025 0.10163446 0.00005519 0.00019167 0.00003424
0.25567594 0.41002974 0.78728032 -0.00016865 -0.00012895 -0.00003396
0.45704913 0.37872708 0.93866730 -0.00010680 -0.00002444 0.00018672
0.36366209 0.54284585 0.33623397 -0.00012712 0.00012937 0.00006829
0.69084322 0.36865255 0.55681890 -0.00006244 0.00007182 0.00005814
0.46837005 0.71387911 0.51019448 -0.00006182 -0.00009572 -0.00004008
0.26079866 0.34905079 0.60851610 -0.00014897 -0.00018593 -0.00006707
0.43590102 0.58828026 0.14798252 -0.00010899 0.00011164 -0.00008239
0.36454028 0.67547739 0.80934024 0.00012278 -0.00003722 0.00004583
0.49517182 0.25011370 0.59603071 -0.00004371 0.00002329 0.00012745
0.62953150 0.61793566 0.37976751 0.00019561 0.00012220 -0.00010188
0.62869513 0.58523661 0.38770932 0.00010902 -0.00006857 0.00008245
0.42326561 0.76573354 0.71565139 -0.00013100 0.00020815 -0.00004671
0.37064114 0.47690418 0.06195998 -0.00026202 -0.00004359 -0.00000727
0.31298399 0.62699020 0.84200752 -0.00020205 0.00004494 0.00001057
0.66083872 0.44430968 0.39070931 0.00004222 0.00014486 -0.00011987
0.36385298 0.51162863 0.32497582 -0.00005232 -0.00011260 -0.00008174
0.38542387 0.26778731 0.52862448 -0.00012539 -0.00020640 0.00002515
0.39340475 0.55081761 0.27956042 -0.00016951 -0.00001114 -0.00011069
0.34461394 0.49470320 0.91138369 -0.00013329 -0.00013694 -0.00007025
0.59178436 0.39166614 0.91487730 -0.00010518 -0.00002080 0.00003776
0.34775212 0.68165737 0.82167202 0.00001643 0.00015943 0.00016796
0.34733757 0.43828967 0.41214198 0.00011831 -0.00001583 0.00000961
0.54751444 0.70055914 0.48992002 0.00003849 -0.00005604 0.00009137
0.59477431 0.40706247 0.90275455 -0.00005874 -0.00000394 -0.00005145
0.41501197 0.43615425 0.30555040 0.00000340 0.00007549 0.00008382
0.49891269 0.32286993 0.43238378 -0.00006216 0.00005030 0.00010712
0.26994956 0.56329668 0.48930728 -0.00011780 -0.00005418 -0.00015263
0.40749744 0.56125849 0.15254888 -0.00014728 0.00012976 0.00000624
0.56559986 0.49212414 0.04545457 0.00000945 0.00001406 -0.00016073
0.48087910 0.61597753 0.32025856 -0.00009191 -0.00005391 -0.00006724
0.32031763 0.27571365 0.66487604 -0.00012561 -0.00021488 0.00000449
0.46790460 0.57995754 0.91469908 0.00006146 0.00001157 -0.00009659
0.50679541 0.62575746 0.06670179 0.00007011 0.00022226 0.00000979
0.37163296 0.72625726 0.74580306 -0.00016959 0.00001262 -0.00011357
0.24066506 0.49490863 0.55538172 -0.00023542 0.00004856 0.00007047
0.48908457 0.60696203 0.14580981 0.00000972 0.00014347 -0.00002896
0.37502477 0.27910912 0.52912992 -0.00015811 -0.00012051 0.00010869
0.51388359 0.45266512 0.94213808 0.00010772 -0.00001171 0.00006531
0.23316145 0.57408482 0.66177875 -0.00014796 -0.00006082 -0.00012539
0.33637485 0.49294505 0.39380112 -0.00003525 0.00009137 0.00010834
0.52284628 0.50885320 0.17215885 0.00000170 -0.00001755 0.00007790
0.31487399 0.58020395 0.85799378 -0.00013215 -0.00006543 -0.00013595
0.53929627 0.42994425 0.04545457 -0.00003984 -0.00001384 -0.00016538
0.37955838 0.50363773 0.11173808 -0.00019831 -0.00000285 0.00004985
0.56689072 0.60164660 0.04545457 0.00007114 0.00010114 -0.00020120
0.34457758 0.59957755 0.86751652 0.00010948 0.00002126 0.00003294
0.25645322 0.59487391 0.68249416 0.00004678 0.00006023 0.00014538
0.51044995 0.76517445 0.68740416 0.00009315 -0.00000718 0.00019317
0.30281222 0.65198928 0.63289881 0.00008737 -0.00005043 0.00009640
0.51986903 0.70308280 0.49716911 -0.00002870 -0.00009171 0.00005320
0.40027016 0.62839568 0.39400840 -0.00005676 -0.00009740 -0.00007418
0.63456064 0.69832277 0.57538253 -0.00006220 -0.00006081 -0.00005267
0.61564797 0.59512210 0.39948475 0.00000051 -0.00005723 0.00008334
0.71095318 0.34460717 0.53679448 0.00017771 -0.00013843 -0.00014785
0.41337743 0.56549484 0.25923139 -0.00014847 0.00009944 -0.00009513
0.60914791 0.42658153 0.06512181 0.00018646 -0.00016197 0.00002888
0.56365073 0.53585762 0.04545457 0.00001623 0.00000758 -0.00016062
0.23995325 0.40808067 0.57735163 -0.00020030 -0.00010870 -0.00006649
0.31703857 0.36109531 0.45754918 -0.00021084 -0.00009429 -0.00005464
0.33883029 0.69862914 0.56785077 -0.00010308 -0.00005286 -0.00015263
0.55652440 0.30866450 0.83611476 -0.00004559 0.00008600 -0.00006883
0.60023338 0.46225691 0.25328231 0.00016540 -0.00011405 0.00000897
0.35439482 0.28429911 0.69614595 0.00001978 0.00011007 0.00010287
0.40874928 0.52644223 0.18247521 -0.00008868 0.00000809 0.00001125
0.25633776 0.36013895 0.62001431 -0.00024009 -0.00002377 0.00008947
0.63252336 0.57009029 0.92822909 0.00010484 0.00006535 0.00022315
0.50651449 0.24479736 0.80924207 -0.00010434 -0.00022051 0.00016842
0.57950526 0.42736518 0.04545457 0.00001159 -0.00001112 -0.00019789
0.51093906 0.73972452 0.50626725 0.00011401 0.00017837 0.00009364
0.22277872 0.53285772 0.71673226 -0.00019850 0.00009060 0.00012327
0.35105211 0.55219579 0.89484823 0.00010103 0.00004465 0.00002841
0.42778012 0.50030959 0.93086904 -0.00002074 0.00011146 -0.00003534
0.60630882 0.56120211 0.35700756 -0.00014268 -0.00000317 0.00004510
0.40037382 0.49434868 0.91306907 0.00000894 0.00006902 -0.00009427
0.43456376 0.60264117 0.09470175 -0.00008941 0.00017454 0.00004495
0.55649894 0.74411267 0.62258697 -0.00003781 -0.00006857 -0.00007418
0.71683949 0.38497525 0.54260629 -0.00000742 0.00008735 -0.00012769
0.31509674 0.28039911 0.65809512 -0.00014085 -0.00019360 -0.00004584
0.45359462 0.39035615 0.93107820 -0.00011885 0.00008293 0.00006292
0.45366010 0.53623223 0.04545457 -0.00000035 -0.00001192 -0.00014954
0.48123455 0.25825551 0.56097347 0.00003589 0.00008956 -0.00004236
0.70320684 0.56538033 0.49052000 -0.00010960 0.00005577 -0.00008715
0.62058699 0.60355932 0.40477291 0.00002379 -0.00004044 0.00010574
0.64601517 0.40146160 0.38809931 0.00006359 -0.00022569 -0.00000273
0.53176266 0.69496554 0.84831017 -0.00007347 0.00005623 -0.00010156
0.49209362 0.31731266 0.38746932 0.00011280 -0.00008804 -0.00015609
0.71532500 0.62247294 0.69683319 -0.00010334 -0.00001132 -0.00006279
0.61067426 0.57757300 0.93514550 0.00005175 0.00007912 0.00022327
0.49872637 0.53974581 0.93211001 0.00003568 0.00005837 -0.00007469
0.25578958 0.48269507 0.72881132 0.00009481 -0.00002677 -0.00004047
0.53420901 0.39017251 0.26345775 0.00014967 -0.00012325 -0.00007229
0.51154542 0.73012549 0.47827366 -0.00006076 0.00010025 -0.00017221
0.53270900 0.46809056 0.94718271 -0.00005348 -0.00011807 0.00007628
0.60589433 0.42264518 0.05791636 0.00015797 -0.00020294 -0.00001675
0.45176736 0.47783324 0.95147544 -0.00001403 -0.00011500 0.00020968
0.25557321 0.56943667 0.69313687 0.00011568 0.00001699 0.00008485
0.59710974 0.67319101 0.41756836 0.00003691 0.00015267 -0.00024774
0.70132864 0.47389868 0.82560390 -0.00011067 -0.00001304 -0.00003155
0.51069087 0.56553036 0.21343604 0.00004790 -0.00004555 0.00000906
0.47864366 0.35209078 0.37951660 0.00010049 0.00006298 -0.00000308
0.51131362 0.24970552 0.81573665 -0.00001718 -0.00014583 0.00019344
0.41423744 0.53285313 0.20620969 -0.00011347 0.00008767 0.00005176
0.24132234 0.60922295 0.66866779 -0.00020760 0.00012127 0.00006780
0.44999188 0.35167441 0.90114099 0.00004647 -0.00009154 -0.00012882
0.26782137 0.43212152 0.76088762 0.00006454 -0.00005457 -0.00005700
0.37724298 0.73299998 0.57377803 -0.00003849 0.00019212 0.00008282
0.44303012 0.52285039 0.20676878 0.00005648 -0.00000216 -0.00001014
0.76254493 0.53407854 0.62677062 -0.00002778 0.00008813 -0.00015413
0.70203775 0.64791834 0.56191713 0.00009494 -0.00002140 0.00012090
0.68459958 0.44733602 0.40405926 0.00017338 0.00008039 -0.00014673
0.33536851 0.54993945 0.91012460 -0.00000420 0.00013120 0.00020928
0.29510948 0.30504999 0.63114882 -0.00009204 -0.00018999 -0.00013646
0.65477693 0.56481034 0.91668642 0.00015092 0.00005293 0.00021075
0.56649530 0.67815739 0.84954834 0.00000126 -0.00011453 -0.00001585
0.55785716 0.39846703 0.16129071 0.00012506 -0.00019425 0.00001448
0.70608681 0.65845466 0.54417080 0.00017224 0.00012891 -0.00006729
0.53891444 0.39220977 0.31365311 -0.00006427 -0.00000454 0.00010541
0.50919175 0.58417207 0.21163332 0.00009786 0.00007920 0.00007127
0.61151433 0.50052685 0.13671619 0.00016035 0.00001372 0.00002010
0.25761047 0.55418581 0.68175411 0.00009432 -0.00002524 -0.00003167
0.51801360 0.40274340 0.18669792 -0.00002739 -0.00010992 0.00005919
0.59258980 0.44482604 0.17112705 0.00008474 -0.00000779 0.00011329
0.55593801 0.69429374 0.83126295 -0.00006312 -0.00000781 -0.00008827
0.65924054 0.45634782 0.41033199 -0.00008032 0.00009507 -0.00003715
0.58454889 0.68102825 0.82758933 -0.00002026 -0.00011731 -0.00005040
0.48355457 0.61809289 0.10024172 0.00001662 0.00020288 0.00001293
0.61823243 0.54948401 0.35942030 -0.00001053 -0.00006870 0.00009133
0.77006936 0.57813579 0.66445416 0.00020411 0.00008107 -0.00003970
0.27085319 0.48024869 0.54692358 0.00008465 -0.00002227 -0.00000430
0.46538734 0.33985078 0.35972300 0.00012857 -0.00012474 -0.00010009
0.61108887 0.42190701 0.36732116 -0.00005213 0.00009894 -0.00000600
0.51161176 0.43735150 0.04545457 0.00003580 -0.00004876 -0.00015397
0.37957475 0.70104641 0.75671577 0.00003034 -0.00007368 -0.00005415
0.50717634 0.52330130 0.17215885 -0.00000372 0.00000709 0.00007873
0.43686739 0.48853686 0.17334430 0.00001088 -0.00003462 0.00007806
0.44467279 0.55299217 0.19071154 0.00005690 0.00001633 0.00000539
0.32559854 0.48206505 0.39771202 -0.00009252 0.00013354 0.00010931
0.24021597 0.52428770 0.72931498 0.00007090 0.00008718 0.00012501
0.41127110 0.72213274 0.73341316 0.00003514 -0.00009161 -0.00003562
0.71166682 0.52003312 0.87077200 0.00021881 0.00006749 0.00008994
0.47977185 0.23565283 0.55497533 0.00007170 -0.00007396 -0.00013506
0.66370785 0.70211369 0.78313208 0.00011740 0.00022467 0.00004913
0.51588815 0.49767137 0.17215885 0.00000517 0.00004690 0.00007343
0.46171367 0.60397476 0.13023168 -0.00008632 0.00015315 0.00002867
0.59992433 0.41433883 0.06801271 0.00019083 -0.00014235 0.00000549
0.44352555 0.76157898 0.72720224 0.00005558 0.00016958 0.00015049
0.60432428 0.58003211 0.36299935 -0.00010665 -0.00000161 -0.00001238
0.47488546 0.51435769 0.95097268 -0.00009392 -0.00001491 0.00011931
0.51333088 0.59844935 0.31763402 0.00000377 -0.00006682 0.00003870
0.35623845 0.48558956 0.92326820 -0.00012294 -0.00016444 0.00007878
0.47903731 0.67009014 0.91300273 -0.00008072 0.00019468 0.00022164
0.46023643 0.60823566 0.04545457 -0.00001147 0.00001161 -0.00025366
0.56578344 0.42819697 0.21278150 0.00009588 -0.00013355 0.00000170
0.57072979 0.58446759 0.16220340 0.00013319 0.00016751 0.00002868
0.62768424 0.51508313 0.29286769 0.00024369 0.00007351 -0.00008947
0.61217159 0.34457260 0.90003097 0.00014666 -0.00017878 0.00010185
0.31113219 0.61411750 0.84870565 -0.00022559 0.00004653 0.00003033
0.45556006 0.61783838 0.05163637 -0.00009371 0.00023512 -0.00015393
0.41382197 0.37857890 0.32448670 -0.00016524 -0.00015637 -0.00000535
0.39680657 0.73916811 0.72238410 -0.00012155 -0.00003368 -0.00011065
0.71817768 0.62263656 0.54323530 0.00019405 0.00004342 0.00015061
0.61383337 0.55607671 0.92533177 0.00003729 -0.00013115 0.00009940
0.72918862 0.34879714 0.75095767 0.00013963 -0.00015209 0.00013547
0.49199998 0.75496721 0.69742233 0.00009270 -0.00001746 0.00018964
0.57677799 0.73535907 0.63959056 0.00000440 -0.00008261 0.00006874
0.33085215 0.61498660 0.82830751 0.00002702 -0.00005221 -0.00008649
